# .PCD v0.7 - Point Cloud Data file format
VERSION 0.7
FIELDS x y z intensity
SIZE 4 4 4 4
TYPE F F F F
COUNT 1 1 1 1
WIDTH 1372
HEIGHT 1
VIEWPOINT 0 0 0 1 0 0 0
POINTS 1372
DATA ascii
-0.69400001 -6.5970001 -1.355 0.34
-0.671 -6.5760002 -1.35 0.34999999
-0.64999998 -6.5780001 -1.35 0.34999999
-0.63099998 -6.5960002 -1.353 0.33000001
-0.60900003 -6.586 -1.351 0.36000001
-0.58899999 -6.598 -1.353 0.34
-0.57800001 -6.5869999 -1.35 0.34
-0.55699998 -6.585 -1.349 0.34999999
-0.537 -6.598 -1.352 0.36000001
-0.51700002 -6.6020002 -1.352 0.34999999
-0.495 -6.5900002 -1.349 0.34999999
-0.47400001 -6.5890002 -1.349 0.36000001
-0.46399999 -6.5879998 -1.348 0.36000001
-0.44299999 -6.5949998 -1.35 0.34999999
-0.42199999 -6.5929999 -1.349 0.34
-0.40099999 -6.586 -1.347 0.34
-0.38 -6.5799999 -1.345 0.34
-0.36000001 -6.5910001 -1.348 0.33000001
-0.33899999 -6.5960002 -1.348 0.36000001
-0.329 -6.6020002 -1.35 0.34
-0.308 -6.5949998 -1.348 0.36000001
-0.287 -6.5869999 -1.346 0.36000001
-0.266 -6.5910001 -1.347 0.34999999
-0.24600001 -6.598 -1.348 0.36000001
-0.22499999 -6.5970001 -1.348 0.34999999
-0.204 -6.5900002 -1.346 0.36000001
-0.19400001 -6.592 -1.346 0.34999999
-0.17299999 -6.5960002 -1.347 0.34
-0.153 -6.5970001 -1.347 0.34999999
-0.132 -6.586 -1.345 0.34
-0.111 -6.598 -1.347 0.36000001
-0.090000004 -6.5900002 -1.345 0.36000001
-0.068999998 -6.5869999 -1.345 0.36000001
-0.059 -6.5960002 -1.347 0.34999999
-0.037999999 -6.5910001 -1.345 0.34
-0.017999999 -6.585 -1.344 0.31999999
0.003 -6.5970001 -1.347 0.31999999
0.024 -6.5910001 -1.345 0.34
0.044 -6.5830002 -1.344 0.34
0.064999998 -6.5900002 -1.345 0.34
0.075000003 -6.5830002 -1.344 0.34
0.096000001 -6.5879998 -1.345 0.36000001
0.117 -6.5819998 -1.344 0.34
0.13699999 -6.5819998 -1.344 0.36000001
0.15800001 -6.5830002 -1.344 0.36000001
0.17900001 -6.5830002 -1.344 0.41
0.2 -6.586 -1.345 0.33000001
0.20999999 -6.5840001 -1.345 0.38
0.23 -6.579 -1.344 0.36000001
0.25099999 -6.5780001 -1.344 0.25
0.27200001 -6.5770001 -1.344 0.49000001
0.29300001 -6.5780001 -1.344 0.36000001
0.31299999 -6.566 -1.341 0.28999999
0.331 -6.5240002 -1.332 0.18000001
0.345 -6.5879998 -1.347 0.18000001
0.19 -3.1900001 -0.58899999 0.23999999
0.2 -3.1819999 -0.58700001 0.30000001
0.208 -3.1459999 -0.579 0.22
0.219 -3.1589999 -0.58200002 0.36000001
0.227 -3.1370001 -0.57800001 0.30000001
0.236 -3.1270001 -0.57499999 0.25
0.241 -3.1259999 -0.57499999 0.33000001
0.252 -3.131 -0.57700002 0.31999999
0.25999999 -3.1110001 -0.57200003 0.28
0.27000001 -3.1140001 -0.57300001 0.33000001
0.28 -3.109 -0.57200003 0.30000001
0.28799999 -3.095 -0.56900001 0.31999999
0.294 -3.1059999 -0.57200003 0.34
0.303 -3.0929999 -0.56900001 0.22
0.31400001 -3.1140001 -0.574 0.38
0.32300001 -3.0969999 -0.57099998 0.28
0.33199999 -3.0899999 -0.56900001 0.34
0.34299999 -3.099 -0.57200003 0.25
0.35499999 -3.1210001 -0.57700002 0.38999999
0.36000001 -3.125 -0.57800001 0.31999999
0.368 -3.1099999 -0.57499999 0.28999999
0.377 -3.095 -0.57200003 0.28
0.38999999 -3.1270001 -0.579 0.31
0.40000001 -3.1300001 -0.57999998 0.34
0.41100001 -3.138 -0.58200002 0.31999999
0.419 -3.1210001 -0.57800001 0.20999999
0.43099999 -3.177 -0.59100002 0.41
0.43599999 -3.1370001 -0.58200002 0.14
0.45300001 -3.1889999 -0.59500003 0.34
0.94 -6.5100002 -1.342 0.15000001
0.46799999 -3.2190001 -0.602 0.23999999
0.96200001 -6.52 -1.345 0.33000001
0.98400003 -6.527 -1.348 0.36000001
0.99400002 -6.5190001 -1.346 0.36000001
1.0140001 -6.5120001 -1.345 0.36000001
1.036 -6.5209999 -1.348 0.36000001
1.0549999 -6.5120001 -1.347 0.34999999
1.075 -6.5009999 -1.345 0.36000001
1.098 -6.5149999 -1.349 0.36000001
1.1160001 -6.5 -1.346 0.36000001
1.128 -6.5040002 -1.348 0.34999999
1.15 -6.5120001 -1.35 0.36000001
1.168 -6.4959998 -1.348 0.34999999
1.189 -6.4949999 -1.348 0.36000001
1.211 -6.4970002 -1.349 0.33000001
1.228 -6.4770002 -1.346 0.34999999
1.239 -6.4790001 -1.347 0.34
1.262 -6.487 -1.349 0.38
1.278 -6.4619999 -1.345 0.31999999
1.301 -6.473 -1.348 0.34
1.322 -6.4710002 -1.348 0.34999999
1.34 -6.4549999 -1.346 0.34
1.36 -6.4510002 -1.346 0.34
1.382 -6.4559999 -1.348 0.34
1.392 -6.4520001 -1.348 0.38999999
1.41 -6.4380002 -1.345 0.33000001
1.4349999 -6.4530001 -1.35 0.36000001
1.452 -6.4330001 -1.346 0.37
1.474 -6.4359999 -1.348 0.31999999
1.495 -6.4349999 -1.349 0.38
1.513 -6.4250002 -1.348 0.31999999
1.523 -6.4200001 -1.347 0.33000001
1.5470001 -6.4330001 -1.351 0.34999999
1.564 -6.415 -1.348 0.34
1.5829999 -6.4039998 -1.347 0.33000001
1.6059999 -6.4120002 -1.35 0.36000001
1.622 -6.388 -1.345 0.31999999
1.6339999 -6.395 -1.348 0.38
1.656 -6.3969998 -1.349 0.31
1.6720001 -6.3730001 -1.345 0.31999999
1.694 -6.3769999 -1.347 0.33000001
1.717 -6.382 -1.349 0.33000001
1.7359999 -6.3740001 -1.349 0.34999999
1.755 -6.3629999 -1.348 0.31999999
1.766 -6.3660002 -1.349 0.31999999
1.7819999 -6.3470001 -1.346 0.38999999
1.804 -6.349 -1.348 0.34999999
1.825 -6.3470001 -1.348 0.34
1.842 -6.3299999 -1.346 0.34
1.8609999 -6.3210001 -1.345 0.34999999
1.885 -6.3280001 -1.348 0.30000001
1.895 -6.3249998 -1.348 0.37
1.913 -6.3130002 -1.347 0.34
1.937 -6.3200002 -1.35 0.36000001
1.955 -6.3099999 -1.349 0.34999999
1.975 -6.3039999 -1.349 0.36000001
1.994 -6.2940001 -1.348 0.34
2.013 -6.2880001 -1.348 0.34999999
2.0250001 -6.289 -1.349 0.34999999
2.046 -6.2880001 -1.35 0.33000001
2.063 -6.2740002 -1.348 0.33000001
2.085 -6.2729998 -1.35 0.38
2.1059999 -6.27 -1.351 0.36000001
2.1229999 -6.256 -1.349 0.31999999
2.1489999 -6.2680001 -1.353 0.34999999
2.154 -6.25 -1.35 0.36000001
2.174 -6.2449999 -1.35 0.34999999
2.1960001 -6.243 -1.351 0.34999999
2.2160001 -6.2379999 -1.352 0.31999999
2.2349999 -6.2290001 -1.351 0.37
2.253 -6.2189999 -1.351 0.36000001
2.2750001 -6.2189999 -1.352 0.36000001
2.2820001 -6.2059999 -1.35 0.33000001
2.3069999 -6.2150002 -1.354 0.38
2.3239999 -6.2010002 -1.352 0.31999999
2.3429999 -6.1919999 -1.352 0.34
2.3610001 -6.1820002 -1.351 0.37
2.385 -6.1859999 -1.354 0.34999999
2.398 -6.1900001 -1.3559999 0.36000001
2.4159999 -6.1799998 -1.355 0.31999999
2.4349999 -6.171 -1.355 0.34
2.4549999 -6.165 -1.355 0.34999999
2.4760001 -6.1609998 -1.3559999 0.34
2.493 -6.1469998 -1.355 0.34999999
2.5120001 -6.1399999 -1.355 0.34999999
2.5239999 -6.1409998 -1.3559999 0.34
2.5439999 -6.1350002 -1.357 0.36000001
2.566 -6.132 -1.358 0.34999999
2.5829999 -6.1209998 -1.357 0.36000001
2.6010001 -6.1090002 -1.3559999 0.33000001
2.622 -6.1040001 -1.357 0.38
2.6429999 -6.1009998 -1.358 0.36000001
2.651 -6.092 -1.357 0.33000001
2.671 -6.0869999 -1.358 0.38
2.6889999 -6.0749998 -1.357 0.36000001
2.7130001 -6.0770001 -1.36 0.34999999
2.7309999 -6.0669999 -1.359 0.34999999
2.7479999 -6.0549998 -1.358 0.36000001
2.7679999 -6.0479999 -1.359 0.33000001
2.7780001 -6.0440001 -1.359 0.34999999
2.799 -6.04 -1.36 0.36000001
2.8199999 -6.0349998 -1.3609999 0.36000001
2.835 -6.0190001 -1.359 0.34
2.8659999 -6.0349998 -1.365 0.38999999
2.881 -6.0170002 -1.363 0.33000001
2.9000001 -6.0100002 -1.364 0.38
2.9070001 -6 -1.362 0.36000001
2.9260001 -5.9910002 -1.362 0.34999999
2.947 -5.987 -1.364 0.36000001
2.967 -5.9790001 -1.364 0.36000001
2.987 -5.9710002 -1.365 0.36000001
3.0050001 -5.96 -1.364 0.31999999
3.0250001 -5.954 -1.365 0.36000001
3.0339999 -5.9499998 -1.365 0.36000001
3.053 -5.9400001 -1.365 0.34
3.0710001 -5.9289999 -1.365 0.38
3.096 -5.9310002 -1.368 0.34999999
3.1110001 -5.914 -1.3660001 0.34999999
3.128 -5.901 -1.365 0.36000001
3.1459999 -5.9130001 -1.369 0.36000001
3.1570001 -5.8899999 -1.3660001 0.36000001
3.178 -5.8850002 -1.367 0.37
3.2049999 -5.8899999 -1.3710001 0.31999999
3.2149999 -5.8649998 -1.367 0.34999999
3.2309999 -5.8499999 -1.3660001 0.34999999
3.2590001 -5.8569999 -1.37 0.34999999
3.2690001 -5.8530002 -1.3710001 0.36000001
3.286 -5.8410001 -1.37 0.34
3.309 -5.8390002 -1.372 0.36000001
3.322 -5.8189998 -1.37 0.38
3.3440001 -5.8150001 -1.3710001 0.38
3.3640001 -5.8080001 -1.372 0.36000001
3.3829999 -5.7989998 -1.373 0.33000001
3.3870001 -5.783 -1.37 0.34999999
3.4159999 -5.7909999 -1.375 0.34
3.428 -5.77 -1.372 0.34
3.4449999 -5.7579999 -1.372 0.34
3.4690001 -5.757 -1.375 0.34
3.4860001 -5.7449999 -1.374 0.36000001
3.5050001 -5.7350001 -1.375 0.36000001
3.5209999 -5.7410002 -1.378 0.38
3.5350001 -5.724 -1.376 0.34999999
3.5539999 -5.7140002 -1.376 0.34
3.576 -5.71 -1.378 0.38
3.5910001 -5.6929998 -1.377 0.33000001
3.6129999 -5.6890001 -1.378 0.22
3.6489999 -5.7049999 -1.386 0.55000001
3.5680001 -5.5580001 -1.348 0
2.358 -3.3010001 -0.78100002 0.89999998
2.3699999 -3.2950001 -0.78100002 0.80000001
2.3759999 -3.283 -0.77999997 0.69999999
2.3759999 -3.2620001 -0.77600002 0.88
2.378 -3.253 -0.77499998 0.51999998
2.3640001 -3.2119999 -0.76599997 0.67000002
2.3710001 -3.2 -0.764 0.81999999
2.3729999 -3.1819999 -0.76099998 0.82999998
2.381 -3.171 -0.75999999 0.85000002
2.375 -3.1429999 -0.755 0.80000001
2.309 -3.0339999 -0.72600001 0.38
2.369 -3.1040001 -0.74699998 0
2.3800001 -3.098 -0.74699998 0
2.3829999 -3.0810001 -0.745 0
2.385 -3.0639999 -0.74199998 0
2.3789999 -3.0369999 -0.736 0
2.3800001 -3.0190001 -0.73299998 0
2.494 -2.467 -0.65899998 0
2.5090001 -2.474 -0.662 0
2.5350001 -2.484 -0.66799998 0
5.4840002 -2.096 -1.1849999 0
5.6690001 -2.1070001 -1.224 0
5.6999998 -2.098 -1.23 0
5.7519999 -2.0969999 -1.2410001 0
5.8769999 -2.112 -1.268 0.07
5.9169998 -2.105 -1.276 0.23999999
5.9549999 -2.098 -1.284 0.25999999
5.954 -2.076 -1.2819999 0.19
5.9850001 -2.066 -1.288 0.12
6.1760001 -2.1110001 -1.331 0.38999999
6.1729999 -2.0880001 -1.329 0.30000001
6.2090001 -2.0899999 -1.337 0.11
6.381 -2.1259999 -1.375 0.20999999
6.441 -2.1240001 -1.388 0.20999999
6.494 -2.119 -1.399 0.25
6.5900002 -2.128 -1.42 0.12
7.5970001 -2.431 -1.654 0.31
7.6240001 -2.4130001 -1.659 0.37
7.6290002 -2.402 -1.659 0.28999999
7.6399999 -2.3789999 -1.66 0.43000001
7.6570001 -2.358 -1.6619999 0.33000001
7.665 -2.3340001 -1.6619999 0.37
7.6830001 -2.313 -1.665 0.34999999
7.6919999 -2.289 -1.665 0.31999999
7.7199998 -2.2709999 -1.67 0.41
7.7270002 -2.26 -1.671 0.34999999
7.7360001 -2.237 -1.671 0.34999999
7.756 -2.2160001 -1.674 0.34999999
7.7589998 -2.191 -1.673 0.33000001
7.7740002 -2.168 -1.675 0.33000001
7.7880001 -2.1459999 -1.677 0.34999999
7.802 -2.1240001 -1.679 0.38
7.796 -2.109 -1.676 0.31
7.8309999 -2.092 -1.683 0.38
7.8280001 -2.0650001 -1.681 0.30000001
7.8499999 -2.0439999 -1.684 0.33000001
7.862 -2.0209999 -1.686 0.31999999
7.8959999 -2.0039999 -1.692 0.31999999
7.9219999 -1.984 -1.696 0.28999999
7.9720001 -1.983 -1.707 0.25
8.0030003 -1.964 -1.7130001 0.51999998
8.0430002 -1.947 -1.721 0.41
8.059 -1.924 -1.723 0.46000001
8.0609999 -1.898 -1.722 0.30000001
8.0550003 -1.87 -1.719 0.43000001
8.0539999 -1.8430001 -1.7180001 0.31999999
8.0600004 -1.831 -1.719 0.38
8.0410004 -1.8 -1.7130001 0.34
8.0340004 -1.772 -1.71 0.33000001
8.0369997 -1.7460001 -1.709 0.34
8.0270004 -1.7180001 -1.706 0.27000001
8.04 -1.694 -1.7079999 0.36000001
8.0349998 -1.6799999 -1.706 0.30000001
8.0500002 -1.6569999 -1.7079999 0.36000001
8.0480003 -1.63 -1.706 0.30000001
8.0600004 -1.6059999 -1.7079999 0.36000001
8.0600004 -1.58 -1.707 0.33000001
8.0679998 -1.5549999 -1.7079999 0.30000001
8.0690002 -1.529 -1.707 0.34999999
8.0579996 -1.5140001 -1.704 0.28
8.0780001 -1.4910001 -1.707 0.36000001
8.0769997 -1.465 -1.706 0.34
8.0860004 -1.4400001 -1.707 0.34
8.0810003 -1.413 -1.705 0.33000001
8.0769997 -1.386 -1.7029999 0.27000001
8.1009998 -1.377 -1.7079999 0.36000001
8.0930004 -1.35 -1.705 0.34
8.1029997 -1.325 -1.706 0.31999999
8.1090002 -1.3 -1.707 0.34
8.1149998 -1.275 -1.707 0.37
8.1120005 -1.248 -1.706 0.28999999
8.1269999 -1.225 -1.7079999 0.33000001
8.1230001 -1.211 -1.707 0.31999999
8.1169996 -1.184 -1.705 0.31999999
8.1210003 -1.158 -1.705 0.31
8.1230001 -1.133 -1.704 0.31999999
8.1260004 -1.107 -1.704 0.31999999
8.132 -1.082 -1.705 0.31
8.1330004 -1.056 -1.704 0.30000001
8.1389999 -1.044 -1.705 0.30000001
8.1379995 -1.018 -1.704 0.31999999
8.1429996 -0.99199998 -1.705 0.31999999
8.1479998 -0.96700001 -1.705 0.33000001
8.1470003 -0.94099998 -1.704 0.31999999
8.158 -0.91600001 -1.706 0.31
8.1549997 -0.88999999 -1.705 0.30000001
8.1520004 -0.87699997 -1.704 0.31
8.1569996 -0.85100001 -1.704 0.31
8.1689997 -0.82700002 -1.706 0.31
8.1739998 -0.801 -1.707 0.30000001
8.1630001 -0.77399999 -1.704 0.30000001
8.1829996 -0.75 -1.7079999 0.34
8.165 -0.72299999 -1.7029999 0.28
8.1689997 -0.70999998 -1.704 0.30000001
8.184 -0.68599999 -1.707 0.36000001
8.1789999 -0.65899998 -1.705 0.28999999
8.1789999 -0.63300002 -1.705 0.31999999
8.1850004 -0.60799998 -1.706 0.31
8.1859999 -0.58200002 -1.706 0.31999999
8.1800003 -0.55599999 -1.704 0.31
8.1870003 -0.54400003 -1.705 0.31999999
8.1750002 -0.51700002 -1.702 0.30000001
8.1850004 -0.49200001 -1.704 0.31
8.1859999 -0.46599999 -1.704 0.31
8.1890001 -0.44 -1.704 0.31999999
8.1890001 -0.41499999 -1.704 0.31999999
8.1940002 -0.389 -1.705 0.31999999
8.1890001 -0.37599999 -1.7029999 0.34
8.1920004 -0.34999999 -1.704 0.31
8.1929998 -0.32499999 -1.704 0.34
8.1940002 -0.29899999 -1.704 0.31999999
8.1969995 -0.273 -1.704 0.34
8.1999998 -0.24699999 -1.705 0.31999999
8.1960001 -0.222 -1.704 0.30000001
8.1890001 -0.208 -1.702 0.34
8.1929998 -0.183 -1.7029999 0.31999999
8.1960001 -0.15700001 -1.7029999 0.31999999
8.191 -0.131 -1.702 0.31
8.1990004 -0.106 -1.704 0.31999999
8.1949997 -0.079999998 -1.7029999 0.34
8.1949997 -0.054000001 -1.7029999 0.33000001
8.1990004 -0.041000001 -1.704 0.34
8.2030001 -0.016000001 -1.705 0.34
7.869 0.001 -1.7 0.25
7.8649998 0.026000001 -1.699 0.19
7.875 0.050000001 -1.701 0.27000001
7.8740001 0.075000003 -1.701 0.23
7.8860002 0.088 -1.704 0.2
7.8740001 0.112 -1.701 0.25
7.868 0.13699999 -1.7 0.23999999
7.8649998 0.162 -1.699 0.2
7.8649998 0.186 -1.699 0.27000001
7.8699999 0.211 -1.701 0.23999999
7.8649998 0.236 -1.7 0.2
7.875 0.248 -1.702 0.25999999
7.8740001 0.273 -1.702 0.23999999
7.8709998 0.29800001 -1.701 0.2
7.8740001 0.32300001 -1.702 0.27000001
7.869 0.347 -1.701 0.25
7.868 0.37200001 -1.701 0.2
7.875 0.39700001 -1.7029999 0.27000001
7.8800001 0.41 -1.705 0.23
7.855 0.433 -1.699 0.19
7.8730001 0.45899999 -1.704 0.25999999
7.862 0.48300001 -1.701 0.23999999
7.8639998 0.50800002 -1.702 0.19
7.8649998 0.53299999 -1.7029999 0.27000001
7.8769999 0.546 -1.706 0.23999999
7.8740001 0.57099998 -1.706 0.20999999
7.8740001 0.59600002 -1.706 0.25
7.8720002 0.62099999 -1.706 0.23
7.8720002 0.64499998 -1.706 0.19
7.8720002 0.67000002 -1.707 0.25999999
7.8639998 0.69400001 -1.706 0.23
7.8629999 0.70700002 -1.706 0.20999999
7.8660002 0.73199999 -1.707 0.23999999
7.8639998 0.75700003 -1.707 0.23
7.875 0.78299999 -1.71 0.20999999
7.8610001 0.80599999 -1.707 0.25
7.868 0.83200002 -1.71 0.23
7.8730001 0.85799998 -1.711 0.18000001
7.8720002 0.87 -1.711 0.25999999
7.8590002 0.89399999 -1.709 0.25
7.8740001 0.92000002 -1.7130001 0.20999999
7.8709998 0.94499999 -1.7130001 0.25
7.8579998 0.96899998 -1.711 0.23
7.8590002 0.99400002 -1.712 0.18000001
7.862 1.0190001 -1.7130001 0.25999999
7.8559999 1.031 -1.712 0.25
7.8610001 1.057 -1.714 0.19
7.855 1.081 -1.714 0.27000001
7.8629999 1.108 -1.716 0.23
7.862 1.133 -1.717 0.2
7.8559999 1.1569999 -1.716 0.25
7.8559999 1.182 -1.717 0.23
7.8509998 1.194 -1.716 0.18000001
7.849 1.219 -1.717 0.25999999
7.8470001 1.244 -1.717 0.23999999
7.8390002 1.268 -1.716 0.2
7.849 1.295 -1.72 0.25999999
7.8390002 1.319 -1.7180001 0.25
7.829 1.342 -1.717 0.2
7.8379998 1.3559999 -1.72 0.28
7.8449998 1.383 -1.722 0.23999999
7.835 1.4069999 -1.721 0.20999999
7.829 1.431 -1.72 0.28
7.8379998 1.4579999 -1.724 0.25
7.8239999 1.4809999 -1.721 0.2
7.8400002 1.497 -1.726 0.27000001
7.8299999 1.52 -1.725 0.25
7.8189998 1.544 -1.723 0.2
7.8319998 1.572 -1.727 0.27000001
7.829 1.597 -1.728 0.25
7.829 1.623 -1.729 0.2
7.8299999 1.648 -1.73 0.25999999
7.8260002 1.674 -1.7309999 0.22
7.8449998 1.6900001 -1.7359999 0.18000001
7.8530002 1.7180001 -1.739 0.25999999
7.8509998 1.743 -1.74 0.23
7.842 1.767 -1.739 0.19
7.8509998 1.795 -1.743 0.27000001
7.8530002 1.822 -1.744 0.23
7.848 1.847 -1.744 0.2
7.8709998 1.865 -1.751 0.25999999
7.869 1.891 -1.752 0.23
7.8569999 1.914 -1.75 0.19
7.8779998 1.9450001 -1.757 0.25999999
7.8899999 1.975 -1.761 0.19
7.8769999 1.998 -1.7589999 0.25
7.8850002 2.013 -1.762 0.23999999
7.8990002 2.043 -1.767 0.2
7.8909998 2.0680001 -1.766 0.25
7.914 2.1010001 -1.774 0.23
7.902 2.1240001 -1.772 0.11
7.8940001 2.148 -1.772 0.20999999
7.9060001 2.178 -1.776 0.2
7.9130001 2.194 -1.779 0.25
7.9029999 2.2179999 -1.778 0.22
7.9050002 2.2449999 -1.78 0.17
7.9219999 2.277 -1.786 0.27000001
7.9130001 2.3010001 -1.786 0.22
7.927 2.332 -1.791 0.16
7.9250002 2.359 -1.7920001 0.27000001
7.9250002 2.372 -1.793 0.23
7.9320002 2.402 -1.7970001 0.18000001
7.9320002 2.4289999 -1.799 0.25999999
7.9260001 2.4549999 -1.799 0.22
7.9310002 2.484 -1.802 0.2
7.9380002 2.513 -1.806 0.25
7.9439998 2.5420001 -1.809 0.22
7.9429998 2.556 -1.8099999 0.18000001
7.954 2.5869999 -1.814 0.27000001
7.9489999 2.6129999 -1.8150001 0.22
7.954 2.6429999 -1.818 0.18000001
7.9640002 2.674 -1.823 0.27000001
7.9569998 2.6989999 -1.823 0.23
7.9640002 2.7290001 -1.827 0.19
7.9689999 2.7449999 -1.829 0.25999999
7.9689999 2.773 -1.831 0.23999999
7.9749999 2.8039999 -1.835 0.2
7.9749999 2.832 -1.837 0.27000001
7.9770002 2.8610001 -1.84 0.25
7.9759998 2.8889999 -1.842 0.2
7.9879999 2.9219999 -1.847 0.27000001
7.9889998 2.9360001 -1.849 0.23999999
7.9889998 2.9649999 -1.851 0.2
7.9910002 2.994 -1.854 0.28
7.9899998 3.023 -1.8559999 0.23999999
8.0080004 3.0580001 -1.863 0.23
7.9879999 3.079 -1.86 0.20999999
7.9889998 3.109 -1.863 0.27000001
7.993 3.125 -1.865 0.23999999
7.9959998 3.155 -1.868 0.2
8 3.1860001 -1.872 0.27000001
8.0010004 3.2149999 -1.874 0.23
7.9980001 3.243 -1.876 0.19
7.9990001 3.273 -1.8789999 0.27000001
8.0030003 3.289 -1.881 0.25
8.0030003 3.319 -1.8839999 0.19
8.0050001 3.349 -1.887 0.27000001
8.0019999 3.3770001 -1.8890001 0.23999999
8 3.4059999 -1.891 0.20999999
8 3.4360001 -1.8940001 0.23999999
7.9959998 3.464 -1.896 0.22
8.0030003 3.4820001 -1.899 0.11
8.0100002 3.5150001 -1.903 0.18000001
7.9970002 3.54 -1.903 0.22
7.9910002 3.5669999 -1.904 0.18000001
8.0050001 3.6040001 -1.91 0.23
8.0039997 3.6340001 -1.913 0.18000001
8.0159998 3.6689999 -1.919 0.25
8.0139999 3.684 -1.92 0.19
8.0200005 3.717 -1.924 0.25
7.9970002 3.737 -1.9220001 0.23
8.0089998 3.773 -1.928 0.2
8.0120001 3.806 -1.932 0.23
8.0039997 3.8329999 -1.933 0.22
8.0019999 3.8629999 -1.9349999 0.2
8.0240002 3.8889999 -1.942 0.25
8.0209999 3.9189999 -1.9450001 0.19
8.0190001 3.9489999 -1.947 0.25
8.0129995 3.9779999 -1.949 0.23
8.0100002 4.007 -1.952 0.17
8.0249996 4.0469999 -1.959 0.25999999
8.0220003 4.0770001 -1.961 0.23
8.0279999 4.0960002 -1.965 0.19
8.0270004 4.1269999 -1.9680001 0.27000001
8.0299997 4.1609998 -1.972 0.23999999
8.0290003 4.1919999 -1.975 0.18000001
8.0279999 4.224 -1.978 0.27000001
8.0349998 4.2600002 -1.984 0.23
8.0229998 4.2859998 -1.984 0.20999999
8.0290003 4.3049998 -1.987 0.28
8.0360003 4.342 -1.993 0.25
8.0340004 4.3730001 -1.9960001 0.27000001
8.0439997 4.4120002 -2.0020001 0.25
8.0270004 4.4349999 -2.0009999 0.18000001
8.026 4.4679999 -2.0050001 0.28999999
8.0209999 4.4980001 -2.007 0.25
8.0319996 4.5209999 -2.0120001 0.25999999
8.033 4.5549998 -2.016 0.25999999
8.0340004 4.5890002 -2.02 0.27000001
8.0310001 4.6209998 -2.023 0.27000001
8.0299997 4.6539998 -2.027 0.27000001
8.0220003 4.6830001 -2.029 0.25999999
8.0279999 4.704 -2.0320001 0.27000001
8.0369997 4.743 -2.039 0.27000001
8.0319996 4.7740002 -2.0409999 0.27000001
8.0459995 4.816 -2.049 0.25999999
8.0620003 4.8610001 -2.0580001 0.28
8.0830002 4.9089999 -2.0669999 0.27000001
8.0889997 4.947 -2.073 0.28
8.0769997 4.9569998 -2.072 0.25
8.066 4.9850001 -2.073 0.28
8.0340004 5 -2.069 0.33000001
8.0310001 5.0339999 -2.072 0.43000001
7.9660001 5.0279999 -2.059 0.28
7.9489999 5.052 -2.0580001 0.38
7.9159999 5.066 -2.0539999 0.31
7.9000001 5.073 -2.052 0.27000001
7.881 5.0960002 -2.0510001 0.25999999
7.8709998 5.125 -2.053 0.27000001
7.8579998 5.152 -2.0539999 0.27000001
7.8540001 5.184 -2.0569999 0.27000001
7.836 5.2069998 -2.056 0.27000001
7.8390002 5.2449999 -2.062 0.25999999
7.8509998 5.2719998 -2.0669999 0.28
7.8509998 5.3070002 -2.072 0.27000001
7.823 5.3239999 -2.069 0.28999999
7.7930002 5.3400002 -2.0650001 0.28999999
7.7919998 5.375 -2.0699999 0.28999999
7.7639999 5.3920002 -2.0669999 0.28999999
7.7620001 5.4260001 -2.0710001 0.28999999
7.7519999 5.4380002 -2.0699999 0.28999999
7.7220001 5.4530001 -2.0669999 0.28999999
7.7140002 5.4840002 -2.069 0.28
7.71 5.5170002 -2.073 0.28999999
7.6750002 5.5289998 -2.0680001 0.28999999
7.6669998 5.5599999 -2.0710001 0.27000001
7.6630001 5.5939999 -2.075 0.28
7.6370001 5.5929999 -2.0699999 0.27000001
7.618 5.6160002 -2.069 0.28
7.618 5.6529999 -2.0739999 0.28
7.5780001 5.6609998 -2.0680001 0.28999999
7.5630002 5.6869998 -2.069 0.28
7.5469999 5.7119999 -2.069 0.30000001
7.507 5.7189999 -2.063 0.28999999
7.4970002 5.7290001 -2.063 0.28999999
7.4910002 5.7620001 -2.066 0.28999999
7.467 5.7810001 -2.0639999 0.28999999
7.4619999 5.8150001 -2.0680001 0.27000001
7.4499998 5.8439999 -2.0699999 0.27000001
7.4229999 5.8600001 -2.0669999 0.28999999
7.4159999 5.8930001 -2.0710001 0.28999999
7.4029999 5.901 -2.0699999 0.28
7.3829999 5.9229999 -2.069 0.28
7.381 5.9590001 -2.0739999 0.28
7.3509998 5.974 -2.0710001 0.27000001
7.3309999 5.9959998 -2.0710001 0.27000001
7.323 6.027 -2.0739999 0.28999999
7.2989998 6.0469999 -2.072 0.28999999
7.2969999 6.0640001 -2.075 0.28999999
7.2789998 6.0879998 -2.075 0.28999999
7.2680001 6.118 -2.0769999 0.28999999
7.2399998 6.1329999 -2.075 0.28
7.223 6.158 -2.076 0.30000001
7.211 6.1869998 -2.0780001 0.28999999
7.184 6.2030001 -2.076 0.28
7.164 6.2059999 -2.072 0.30000001
7.151 6.2329998 -2.0739999 0.28
7.125 6.2509999 -2.072 0.27000001
7.1170001 6.283 -2.076 0.25999999
7.0960002 6.3039999 -2.076 0.28999999
7.0689998 6.3200002 -2.073 0.28999999
7.0580001 6.3499999 -2.076 0.27000001
7.046 6.3600001 -2.076 0.27000001
7.0320001 6.3870001 -2.0769999 0.28999999
7.0180001 6.415 -2.079 0.27000001
6.993 6.4330001 -2.0780001 0.27000001
6.994 6.474 -2.085 0.33000001
6.9699998 6.4920001 -2.0829999 0.28
6.9419999 6.5079999 -2.0810001 0.27000001
6.9330001 6.52 -2.0810001 0.28
6.921 6.5500002 -2.0840001 0.28999999
6.902 6.573 -2.085 0.28999999
6.8930001 6.605 -2.0880001 0.28
6.868 6.6230001 -2.0869999 0.28999999
6.848 6.6459999 -2.0869999 0.30000001
6.8260002 6.6659999 -2.0869999 0.28999999
6.8179998 6.6789999 -2.0880001 0.28999999
6.796 6.6989999 -2.0869999 0.27000001
6.7800002 6.7259998 -2.089 0.28
6.763 6.7509999 -2.0910001 0.28
6.7420001 6.7729998 -2.0910001 0.28999999
6.7259998 6.7989998 -2.092 0.28
6.7090001 6.8249998 -2.0940001 0.27000001
6.691 6.8280001 -2.0910001 0.27000001
6.6739998 6.8530002 -2.0929999 0.28999999
6.652 6.8740001 -2.0929999 0.28
6.6389999 6.9039998 -2.095 0.27000001
6.6139998 6.9219999 -2.095 0.28
6.6009998 6.9510002 -2.0969999 0.27000001
6.5770001 6.9699998 -2.0969999 0.28999999
6.5609999 6.9749999 -2.095 0.30000001
6.5469999 7.0040002 -2.098 0.28999999
6.5219998 7.0219998 -2.0969999 0.28999999
6.4990001 7.0409999 -2.096 0.27000001
6.474 7.0580001 -2.095 0.28999999
6.4549999 7.0809999 -2.096 0.31
6.4260001 7.0939999 -2.0940001 0.28999999
6.4060001 7.0939999 -2.0910001 0.25999999
6.3829999 7.1139998 -2.0910001 0.23999999
6.3400002 7.1110001 -2.0840001 0.44999999
6.3140001 7.1259999 -2.082 0.36000001
6.289 7.1430001 -2.0810001 0.41
6.2610002 7.1570001 -2.0799999 0.43000001
6.2410002 7.1570001 -2.0769999 0.34999999
6.198 7.1529999 -2.069 0.47999999
6.1729999 7.1690001 -2.0680001 0.34999999
6.1389999 7.1750002 -2.0639999 0.30000001
6.112 7.1880002 -2.063 0.30000001
6.0700002 7.1849999 -2.056 0.28999999
6.033 7.1859999 -2.05 0.28999999
6.0089998 7.1810002 -2.046 0.30000001
5.9699998 7.1799998 -2.04 0.31
5.9400001 7.1900001 -2.0369999 0.31
5.908 7.1960001 -2.0339999 0.34
5.8730001 7.1999998 -2.029 0.31
5.8439999 7.211 -2.027 0.28999999
5.8119998 7.217 -2.023 0.19
5.8000002 7.2490001 -2.027 0.25999999
5.7870002 7.256 -2.027 0.23
5.7649999 7.2740002 -2.027 0.2
5.7449999 7.2969999 -2.0280001 0.28
5.7150002 7.3060002 -2.026 0.25
5.7059999 7.342 -2.0309999 0.27000001
5.6830001 7.3600001 -2.0309999 0.2
5.664 7.3829999 -2.0320001 0.25999999
5.652 7.3920002 -2.0320001 0.25
5.632 7.414 -2.0339999 0.27000001
5.6069999 7.428 -2.033 0.28
5.592 7.4569998 -2.036 0.27000001
5.5650001 7.4699998 -2.0350001 0.27000001
5.5419998 7.4889998 -2.0350001 0.27000001
5.52 7.5079999 -2.0350001 0.25999999
5.5149999 7.526 -2.0380001 0.27000001
5.4959998 7.5489998 -2.04 0.25999999
5.4809999 7.579 -2.0439999 0.25999999
5.4580002 7.598 -2.0439999 0.27000001
5.4369998 7.618 -2.0450001 0.28999999
5.4130001 7.6350002 -2.0450001 0.28999999
5.3899999 7.6539998 -2.0450001 0.30000001
5.3779998 7.6620002 -2.0450001 0.28
5.3509998 7.6750002 -2.0439999 0.27000001
5.3249998 7.6900001 -2.0439999 0.27000001
5.309 7.7179999 -2.0469999 0.27000001
5.2870002 7.7379999 -2.0480001 0.27000001
5.2649999 7.757 -2.049 0.27000001
5.2340002 7.7639999 -2.046 0.27000001
5.2280002 7.7820001 -2.049 0.25999999
5.2069998 7.803 -2.05 0.25999999
5.1810002 7.8179998 -2.049 0.25999999
5.1669998 7.8509998 -2.0539999 0.25999999
5.1399999 7.8629999 -2.053 0.28
5.1090002 7.8699999 -2.05 0.31999999
5.0890002 7.8920002 -2.052 0.28999999
5.0760002 7.9000001 -2.052 0.27000001
5.0599999 7.9289999 -2.056 0.25
5.0209999 7.9239998 -2.05 0.20999999
5.0040002 7.9510002 -2.053 0.27000001
4.9819999 7.9720001 -2.0539999 0.25
4.9580002 7.9889998 -2.0550001 0.25
4.9359999 8.0100002 -2.056 0.25999999
4.9219999 8.0159998 -2.056 0.2
4.9060001 8.0459995 -2.0599999 0.27000001
4.8769999 8.0550003 -2.0580001 0.23999999
4.855 8.0769997 -2.0599999 0.25999999
4.8309999 8.0939999 -2.0599999 0.25999999
4.803 8.1040001 -2.059 0.25999999
4.7800002 8.1239996 -2.0599999 0.25999999
4.7649999 8.1280003 -2.059 0.25999999
4.7470002 8.1549997 -2.063 0.28
4.723 8.1730003 -2.063 0.25
4.6900001 8.1759996 -2.0599999 0.19
4.671 8.2019997 -2.063 0.28
4.6500001 8.2259998 -2.066 0.25
4.6269999 8.2449999 -2.0669999 0.2
4.6170001 8.2580004 -2.0680001 0.27000001
4.5890002 8.2690001 -2.0669999 0.23999999
4.5599999 8.276 -2.066 0.25999999
4.539 8.3009996 -2.0680001 0.27000001
4.5209999 8.3299999 -2.072 0.25999999
4.4920001 8.3380003 -2.0710001 0.25
4.467 8.3549995 -2.072 0.25999999
4.4640002 8.3809996 -2.0769999 0.25
4.4390001 8.3970003 -2.0769999 0.25999999
4.4099998 8.4069996 -2.076 0.25
4.388 8.4280005 -2.0780001 0.25999999
4.3639998 8.4469995 -2.079 0.25999999
4.3390002 8.4639997 -2.0799999 0.27000001
4.3189998 8.4919996 -2.0840001 0.27000001
4.309 8.5039997 -2.085 0.28
4.2849998 8.5220003 -2.086 0.28
4.256 8.5319996 -2.086 0.28999999
4.2459998 8.5810003 -2.095 0.28999999
4.223 8.6009998 -2.096 0.28
4.1929998 8.6090002 -2.095 0.27000001
4.1849999 8.6610003 -2.105 0.27000001
4.1630001 8.6499996 -2.0999999 0.27000001
4.1399999 8.6730003 -2.1029999 0.30000001
4.125 8.7110004 -2.109 0.31
4.0960002 8.7200003 -2.109 0.31999999
4.0679998 8.7309999 -2.108 0.30000001
4.0479999 8.7620001 -2.1129999 0.33000001
4.0110002 8.7530003 -2.1070001 0.31999999
4.0019999 8.7700005 -2.1099999 0.30000001
3.9790001 8.7930002 -2.1129999 0.30000001
3.9449999 8.7910004 -2.109 0.33000001
3.9219999 8.8129997 -2.1110001 0.31999999
3.901 8.8409996 -2.115 0.34
3.865 8.8339996 -2.1099999 0.31999999
3.8410001 8.8549995 -2.1129999 0.31
3.8280001 8.8640003 -2.1140001 0.30000001
3.793 8.8579998 -2.109 0.30000001
3.763 8.8669996 -2.108 0.31
3.7390001 8.8870001 -2.1099999 0.28999999
3.7019999 8.8769999 -2.105 0.28999999
3.668 8.8730001 -2.1010001 0.30000001
3.6459999 8.8990002 -2.105 0.33000001
3.6270001 8.8940001 -2.102 0.30000001
3.5999999 8.9069996 -2.102 0.28999999
3.5769999 8.9309998 -2.105 0.30000001
3.5409999 8.9200001 -2.0999999 0.28999999
3.513 8.9329996 -2.0999999 0.28999999
3.493 8.9639997 -2.105 0.28999999
3.4590001 8.9589996 -2.1010001 0.30000001
3.441 8.9549999 -2.099 0.30000001
3.415 8.9709997 -2.0999999 0.28
3.3789999 8.9619999 -2.095 0.34999999
3.359 8.9940004 -2.1010001 0.31999999
3.3340001 9.0120001 -2.1029999 0.31999999
3.296 8.9969997 -2.096 0.28
3.277 9.033 -2.1029999 0.30000001
3.2620001 9.0360003 -2.102 0.31
3.2290001 9.0340004 -2.099 0.28
3.2049999 9.0559998 -2.102 0.31999999
3.1819999 9.0810003 -2.1059999 0.34
3.1459999 9.0710001 -2.1010001 0.34
3.1199999 9.0860004 -2.102 0.34
3.086 9.0790005 -2.098 0.41999999
3.0699999 9.0810003 -2.0969999 0.31999999
3.0469999 9.1070004 -2.1010001 0.43000001
3.016 9.1090002 -2.0999999 0.30000001
1.999 6.0749998 -1.359 0.2
1.979 6.0760002 -1.357 0.37
1.971 6.118 -1.3660001 0.31
1.967 6.1739998 -1.378 0.2
1.962 6.2270002 -1.3890001 0.25
1.943 6.198 -1.382 0.34
1.927 6.217 -1.385 0.28
1.9119999 6.2360001 -1.388 0.38999999
1.891 6.2399998 -1.387 0.31999999
1.864 6.2179999 -1.381 0.31999999
1.8609999 6.2820001 -1.395 0.38999999
1.791 6.0770001 -1.345 0.2
1.722 5.9099998 -1.303 0.22
1.7029999 5.914 -1.303 0.31999999
1.739 6.1129999 -1.349 0.22
1.783 6.3470001 -1.404 0.30000001
1.756 6.3260002 -1.398 0.25
1.7309999 6.3130002 -1.393 0.20999999
1.738 6.3779998 -1.408 0.28999999
1.7819999 6.6259999 -1.466 0.16
1.714 6.4510002 -1.423 0.20999999
1.658 6.3200002 -1.391 0.46000001
1.7029999 6.5799999 -1.451 0.27000001
1.595 6.2360001 -1.368 0.25
1.587 6.2859998 -1.3789999 0.34
1.572 6.2719998 -1.375 0.43000001
1.553 6.2789998 -1.375 0.36000001
1.5650001 6.414 -1.406 0.25999999
1.525 6.336 -1.386 0.38
1.512 6.369 -1.393 0.40000001
1.4859999 6.3470001 -1.387 0.22
1.558 6.7579999 -1.484 0.20999999
1.449 6.3720002 -1.391 0.34999999
1.402 6.2059999 -1.351 0.34999999
1.362 6.119 -1.329 0.34999999
1.342 6.1160002 -1.327 0.38
1.318 6.099 -1.322 0.40000001
1.298 6.1009998 -1.322 0.36000001
1.277 6.0939999 -1.319 0.34999999
1.257 6.0939999 -1.318 0.43000001
1.2460001 6.0890002 -1.317 0.34999999
1.226 6.0890002 -1.316 0.36000001
1.207 6.092 -1.316 0.37
1.189 6.1040001 -1.317 0.34999999
1.168 6.098 -1.3150001 0.34999999
1.148 6.098 -1.314 0.31999999
1.1390001 6.1030002 -1.3150001 0.31
1.1210001 6.1129999 -1.317 0.34999999
1.104 6.1279998 -1.319 0.44999999
1.084 6.125 -1.318 0.34999999
1.0700001 6.1599998 -1.325 0.34
1.0549999 6.1880002 -1.331 0.38
1.0420001 6.2319999 -1.34 0.31999999
1.056 6.4460001 -1.39 0.41
1.064 6.5619998 -1.4170001 0.34999999
1.02 6.4130001 -1.381 0.2
0.97799999 6.277 -1.349 0.31999999
0.96200001 6.303 -1.354 0.33000001
0.94499999 6.322 -1.358 0.38
0.92900002 6.3559999 -1.365 0.27000001
0.92400002 6.4689999 -1.391 0.31999999
0.88999999 6.2919998 -1.349 0.34
0.87099999 6.3049998 -1.351 0.38999999
0.87 6.447 -1.3839999 0.31999999
0.83700001 6.355 -1.362 0.38999999
0.82999998 6.4580002 -1.385 0.31999999
0.80699998 6.4369998 -1.38 0.38
0.78200001 6.3990002 -1.37 0.28
0.76300001 6.3249998 -1.353 0.30000001
0.74900001 6.3829999 -1.3660001 0.38999999
0.75599998 6.6240001 -1.421 0.28999999
0.74699998 6.7399998 -1.448 0.41999999
0.72500002 6.7309999 -1.4450001 0.20999999
0.68000001 6.4990001 -1.391 0.37
0.648 6.388 -1.364 0.38
0.67000002 6.7150002 -1.4400001 0.25
0.63200003 6.533 -1.397 0.34
0.62099999 6.6440001 -1.423 0.46000001
0.59500003 6.5949998 -1.411 0.23
0.56999999 6.539 -1.397 0.19
0.52399999 6.23 -1.325 0.47
0.51899999 6.4099998 -1.367 0.23999999
0.537 6.79 -1.455 0.40000001
0.51999998 6.8559999 -1.47 0.28999999
0.50099999 6.8899999 -1.477 0.34
0.48300001 6.9419999 -1.489 0.36000001
0.456 6.8660002 -1.471 0.33000001
0.43000001 6.7969999 -1.455 0.28
0.53799999 9.0900002 -1.9859999 0.27000001
0.52499998 9.1090002 -1.99 0.31999999
0.359 6.4580002 -1.375 0.20999999
0.34099999 6.4920001 -1.383 0.31999999
0.43900001 9.1090002 -1.989 0.17
0.40900001 9.0909996 -1.985 0.31999999
0.38100001 9.0900002 -1.984 0.28999999
0.35299999 9.1070004 -1.988 0.34999999
0.338 9.092 -1.984 0.30000001
0.30899999 9.0930004 -1.984 0.34999999
0.28099999 9.1059999 -1.987 0.30000001
0.252 9.1009998 -1.9859999 0.36000001
0.22400001 9.1000004 -1.985 0.30000001
0.19499999 9.1099997 -1.988 0.37
0.16599999 9.0930004 -1.984 0.31
0.152 9.0909996 -1.983 0.36000001
0.124 9.1009998 -1.985 0.30000001
0.094999999 9.092 -1.983 0.34999999
0.066 9.0979996 -1.984 0.30000001
0.037999999 9.0979996 -1.984 0.34999999
0.0089999996 9.0869999 -1.982 0.34999999
-0.018999999 9.0930004 -1.983 0.30000001
-0.034000002 9.1120005 -1.988 0.34999999
-0.061999999 9.0939999 -1.984 0.28999999
-0.090999998 9.092 -1.983 0.34999999
-0.12 9.1070004 -1.987 0.34999999
-0.148 9.0909996 -1.983 0.34999999
-0.177 9.1009998 -1.985 0.34999999
-0.205 9.1000004 -1.985 0.34
-0.219 9.0780001 -1.98 0.30000001
-0.248 9.0970001 -1.985 0.34999999
-0.27700001 9.1059999 -1.987 0.34
-0.30500001 9.099 -1.9859999 0.34
-0.33399999 9.0900002 -1.984 0.34
-0.36300001 9.1009998 -1.987 0.34
-0.391 9.0979996 -1.9859999 0.34999999
-0.405 9.0950003 -1.9859999 0.34
-0.435 9.1059999 -1.989 0.34
-0.46200001 9.0909996 -1.985 0.28999999
-0.491 9.0889997 -1.985 0.34999999
-0.51999998 9.099 -1.988 0.34999999
-0.54900002 9.0939999 -1.987 0.34999999
-0.57700002 9.0839996 -1.985 0.30000001
-0.59200001 9.1040001 -1.99 0.34999999
-0.62 9.0889997 -1.987 0.34
-0.64899999 9.0930004 -1.989 0.34
-0.67900002 9.1040001 -1.992 0.28999999
-0.70599997 9.0900002 -1.989 0.34999999
-0.73500001 9.0880003 -1.989 0.34
-0.76599997 9.1129999 -1.995 0.34999999
-0.778 9.085 -1.989 0.28999999
-0.80699998 9.0959997 -1.992 0.36000001
-0.83600003 9.0909996 -1.992 0.30000001
-0.86500001 9.0900002 -1.992 0.34999999
-0.89300001 9.0860004 -1.992 0.28999999
-0.92299998 9.1000004 -1.9960001 0.36000001
-0.95200002 9.0950003 -1.995 0.34
-0.96499997 9.0880003 -1.994 0.28999999
-0.99699998 9.1099997 -2 0.34999999
-1.022 9.0799999 -1.993 0.30000001
-1.053 9.0939999 -1.998 0.34999999
-1.0829999 9.1079998 -2.0020001 0.30000001
-1.109 9.0819998 -1.9960001 0.36000001
-1.1390001 9.0860004 -1.998 0.28999999
-1.156 9.1049995 -2.003 0.34999999
-1.182 9.0880003 -2 0.34
-1.21 9.0780001 -1.998 0.30000001
-1.242 9.0959997 -2.003 0.34999999
-1.268 9.0749998 -1.999 0.30000001
-1.299 9.0900002 -2.0039999 0.36000001
-1.33 9.1009998 -2.007 0.30000001
-1.342 9.0869999 -2.0050001 0.34999999
-1.3710001 9.085 -2.0050001 0.34999999
-1.403 9.0979996 -2.0090001 0.28999999
-1.4299999 9.0880003 -2.0079999 0.34999999
-1.46 9.0889997 -2.0090001 0.34
-1.49 9.092 -2.0109999 0.28999999
-1.516 9.0780001 -2.0090001 0.34999999
-1.548 9.0880003 -2.0120001 0.34999999
-1.564 9.0970001 -2.0150001 0.34
-1.59 9.0790005 -2.0120001 0.34999999
-1.62 9.0819998 -2.0139999 0.34999999
-1.654 9.1049995 -2.0209999 0.33000001
-1.679 9.0810003 -2.016 0.34
-1.7079999 9.0790005 -2.017 0.34
-1.7410001 9.0970001 -2.0220001 0.33000001
-1.752 9.0749998 -2.0179999 0.27000001
-1.784 9.0869999 -2.0220001 0.33000001
-1.318 6.6420002 -1.446 0.13
-1.325 6.4640002 -1.405 0.79000002
-1.3279999 6.3800001 -1.386 0.81
-1.311 6.2540002 -1.357 0.79000002
-1.322 6.2080002 -1.347 0.69999999
-1.2970001 6 -1.299 0
-1.298 5.9180002 -1.28 0.029999999
-1.302 5.849 -1.265 0.15000001
-1.326 5.8720002 -1.271 0.12
-1.342 5.8559999 -1.2690001 0.20999999
-1.3559999 5.8330002 -1.2640001 0.56999999
-1.3710001 5.8559999 -1.27 0.16
-1.362 5.7379999 -1.243 0.52999997
-1.368 5.6859999 -1.232 0.25999999
-1.377 5.6459999 -1.223 0.31999999
-1.385 5.6040001 -1.214 0.25999999
-1.401 5.5900002 -1.212 0.27000001
-1.414 5.5700002 -1.2079999 0.25
-1.414 5.5320001 -1.2 0.27000001
-1.428 5.5170002 -1.197 0.27000001
-1.4529999 5.5380001 -1.2029999 0.37
-1.461 5.5019999 -1.196 0.34
-1.476 5.4879999 -1.193 0.27000001
-1.497 5.4980001 -1.197 0.30000001
-1.51 5.4780002 -1.193 0.34
-1.52 5.48 -1.194 0.37
-1.539 5.4819999 -1.196 0.37
-1.553 5.4660001 -1.193 0.37
-1.572 5.467 -1.1950001 0.36000001
-1.594 5.4770002 -1.198 0.36000001
-1.608 5.461 -1.196 0.38
-1.624 5.4520001 -1.1950001 0.36000001
-1.6390001 5.4720001 -1.2 0.33000001
-1.651 5.4499998 -1.196 0.34
-1.669 5.447 -1.196 0.34
-1.6900001 5.454 -1.2 0.34
-1.704 5.4380002 -1.197 0.34
-1.722 5.4380002 -1.198 0.34999999
-1.742 5.4419999 -1.201 0.36000001
-1.75 5.4349999 -1.2 0.34999999
-1.767 5.4320002 -1.2 0.34
-1.788 5.4369998 -1.2029999 0.34
-1.802 5.4219999 -1.201 0.34
-1.823 5.428 -1.2029999 0.34
-1.842 5.427 -1.205 0.34999999
-1.8559999 5.414 -1.2029999 0.36000001
-1.8710001 5.4299998 -1.207 0.36000001
-1.89 5.4289999 -1.209 0.34
-1.9 5.401 -1.2029999 0.36000001
-1.9220001 5.4120002 -1.207 0.36000001
-1.943 5.415 -1.21 0.34999999
-1.956 5.4000001 -1.207 0.34999999
-1.9809999 5.414 -1.212 0.34999999
-1.989 5.4089999 -1.212 0.36000001
-2.0039999 5.3990002 -1.211 0.36000001
-2.0239999 5.4000001 -1.2130001 0.36000001
-2.0420001 5.3969998 -1.214 0.34999999
-2.0599999 5.3920002 -1.214 0.34
-2.082 5.3990002 -1.217 0.34
-2.098 5.3899999 -1.217 0.38
-2.1059999 5.3850002 -1.216 0.33000001
-2.131 5.4000001 -1.222 0.34
-2.145 5.3860002 -1.22 0.34
-2.165 5.3870001 -1.222 0.37
-2.181 5.3779998 -1.221 0.33000001
-2.2030001 5.382 -1.224 0.38
-2.221 5.3769999 -1.224 0.36000001
-2.2320001 5.3800001 -1.226 0.36000001
-2.2520001 5.381 -1.228 0.36000001
-2.2709999 5.3790002 -1.229 0.36000001
-2.2880001 5.3720002 -1.229 0.36000001
-2.306 5.368 -1.23 0.36000001
-2.326 5.368 -1.232 0.30000001
-2.348 5.3709998 -1.235 0.37
-2.3559999 5.3660002 -1.234 0.38
-2.375 5.3639998 -1.2359999 0.34999999
-2.398 5.3699999 -1.239 0.34999999
-2.4170001 5.3660002 -1.24 0.34999999
-2.4360001 5.3639998 -1.242 0.34999999
-2.454 5.3579998 -1.242 0.34
-2.4719999 5.3540001 -1.243 0.33000001
-2.4949999 5.3590002 -1.2460001 0.34
-2.51 5.369 -1.25 0.36000001
-2.526 5.3590002 -1.249 0.36000001
-2.5450001 5.3559999 -1.251 0.36000001
-2.5650001 5.355 -1.252 0.36000001
-2.586 5.3559999 -1.255 0.34999999
-2.608 5.3579998 -1.257 0.34999999
-2.6259999 5.3520002 -1.258 0.36000001
-2.638 5.355 -1.26 0.36000001
-2.655 5.3460002 -1.26 0.34
-2.677 5.348 -1.262 0.34
-2.7019999 5.3559999 -1.266 0.33000001
-2.7179999 5.3470001 -1.266 0.33000001
-2.7379999 5.3439999 -1.268 0.33000001
-2.75 5.3460002 -1.27 0.31999999
-2.7679999 5.3410001 -1.271 0.31999999
-2.7969999 5.355 -1.276 0.36000001
-2.8099999 5.3390002 -1.275 0.30000001
-2.8340001 5.3439999 -1.278 0.36000001
-2.8540001 5.3400002 -1.28 0.34999999
-2.8789999 5.3470001 -1.284 0.34
-2.8870001 5.342 -1.284 0.34
-2.908 5.3400002 -1.285 0.33000001
-2.9319999 5.3439999 -1.289 0.34
-2.95 5.3369999 -1.289 0.33000001
-2.973 5.3390002 -1.293 0.33000001
-2.993 5.335 -1.294 0.33000001
-3.013 5.3309999 -1.295 0.31
-3.036 5.3330002 -1.298 0.31
-3.052 5.342 -1.302 0.34
-3.072 5.3369999 -1.303 0.30000001
-3.0880001 5.3260002 -1.303 0.30000001
-3.1199999 5.3429999 -1.3099999 0.34
-3.1329999 5.3260002 -1.308 0.31999999
-3.1570001 5.3280001 -1.312 0.28999999
-3.187 5.3400002 -1.317 0.33000001
-3.1919999 5.3299999 -1.316 0.31999999
-3.2119999 5.3249998 -1.317 0.31999999
-3.2379999 5.3299999 -1.322 0.31
-3.257 5.3249998 -1.323 0.30000001
-3.279 5.323 -1.325 0.25999999
-3.3069999 5.3299999 -1.33 0.34
-3.3150001 5.3049998 -1.326 0.28
-3.3340001 5.316 -1.331 0.25999999
-3.3559999 5.316 -1.3329999 0.43000001
-3.378 5.3130002 -1.335 0.38
-3.404 5.316 -1.339 0.28
-3.4349999 5.3280001 -1.345 0.28
-3.454 5.3210001 -1.346 0.25999999
-3.467 5.322 -1.348 0.22
-3.4849999 5.3140001 -1.349 0.54000002
-3.5020001 5.303 -1.349 0.36000001
-3.53 5.3080001 -1.354 0.28999999
-3.5539999 5.3080001 -1.357 0.28
-3.576 5.3049998 -1.359 0.28
-3.596 5.2989998 -1.36 0.28
-3.6289999 5.3109999 -1.367 0.27000001
-3.6400001 5.309 -1.368 0.27000001
-3.6600001 5.302 -1.369 0.25999999
-3.701 5.3260002 -1.3789999 0.23999999
-3.698 5.2859998 -1.3710001 0.18000001
-3.733 5.3010001 -1.3789999 0.28
-3.7609999 5.3049998 -1.383 0.25
-3.776 5.29 -1.382 0.2
-3.8039999 5.3119998 -1.391 0.27000001
-3.825 5.3049998 -1.392 0.25
-3.8340001 5.2839999 -1.3890001 0.2
-3.8789999 5.309 -1.4 0.27000001
-3.9000001 5.303 -1.402 0.23999999
-3.914 5.2880001 -1.401 0.19
-3.951 5.302 -1.409 0.25999999
-3.9660001 5.3049998 -1.411 0.23
-3.98 5.29 -1.41 0.18000001
-4.0279999 5.3169999 -1.4220001 0.25999999
-4.0469999 5.3080001 -1.423 0.19
-4.0669999 5.3000002 -1.424 0.25
-4.0929999 5.2989998 -1.428 0.22
-4.1220002 5.302 -1.433 0.2
-4.1370001 5.3039999 -1.4349999 0.25
-4.1659999 5.3070002 -1.4400001 0.19
-4.2020001 5.3179998 -1.447 0.23999999
-4.2150002 5.3000002 -1.446 0.19
-4.243 5.3000002 -1.45 0.23999999
-4.2779999 5.3099999 -1.456 0.18000001
-4.3000002 5.302 -1.4579999 0.23
-4.3169999 5.3060002 -1.461 0.18000001
-4.3429999 5.3049998 -1.465 0.23999999
-4.3720002 5.3060002 -1.47 0.23
-4.3899999 5.2940001 -1.47 0.23
-4.4310002 5.3080001 -1.479 0.2
-4.447 5.2940001 -1.479 0.23
-4.4829998 5.302 -1.485 0.18000001
-4.4949999 5.3000002 -1.487 0.25
-4.52 5.296 -1.49 0.25
-4.5539999 5.3010001 -1.4960001 0.25
-4.5819998 5.3000002 -1.5 0.28
-4.5999999 5.2870002 -1.5 0.28999999
-4.6339998 5.2930002 -1.507 0.28
-4.6589999 5.2870002 -1.5089999 0.12
-4.6859999 5.302 -1.516 0
-4.7550001 5.3449998 -1.534 0
-4.7639999 5.3210001 -1.531 0
-4.7880001 5.3150001 -1.534 0
-4.8049998 5.3000002 -1.534 0
-4.8280001 5.2919998 -1.536 0
-4.8530002 5.2849998 -1.539 0
-4.8730001 5.29 -1.543 0
-4.9070001 5.2940001 -1.549 0
-4.9359999 5.2909999 -1.553 0
-4.967 5.2909999 -1.558 0
-4.9819999 5.2740002 -1.558 0
-5.02 5.2810001 -1.5650001 0
-5.079 5.309 -1.579 0
-5.1170001 5.3309999 -1.589 0.050000001
-5.2610002 5.447 -1.631 0.079999998
-5.2729998 5.4239998 -1.6289999 0.039999999
-5.276 5.3940001 -1.625 0
-5.2550001 5.3390002 -1.612 0.12
-5.2319999 5.2820001 -1.599 0
-5.263 5.2810001 -1.604 0
-5.2979999 5.2989998 -1.613 0
-5.355 5.322 -1.626 0
-5.4089999 5.342 -1.638 0
-7.0159998 6.8309999 -2.145 0.2
-7.0289998 6.8010001 -2.142 0.25
-7.0669999 6.7950001 -2.148 0.20999999
-7.0539999 6.7610002 -2.1400001 0.19
-7.0960002 6.7589998 -2.1470001 0.28999999
-7.0970001 6.7179999 -2.141 0.23999999
-7.1110001 6.6890001 -2.138 0.2
-7.138 6.6719999 -2.1400001 0.27000001
-7.1329999 6.6259999 -2.132 0.25
-7.152 6.6020002 -2.132 0.28
-7.1659999 6.5929999 -2.132 0.25
-7.1859999 6.5710001 -2.132 0.28999999
-7.2059999 6.5469999 -2.132 0.28999999
-7.2119999 6.5110002 -2.128 0.20999999
-7.2379999 6.494 -2.1289999 0.27000001
-7.2550001 6.4679999 -2.128 0.22
-7.2950001 6.4619999 -2.1340001 0.25
-7.29 6.4380002 -2.1300001 0.27000001
-7.3060002 6.4109998 -2.128 0.13
-7.3319998 6.3930001 -2.1300001 0.20999999
-7.362 6.3790002 -2.1329999 0.23
-7.3790002 6.3530002 -2.132 0.30000001
-7.4130001 6.3410001 -2.1370001 0.25
-7.4130001 6.302 -2.131 0.25
-7.4239998 6.2909999 -2.131 0.25
-7.4429998 6.2670002 -2.131 0.2
-7.4559999 6.2379999 -2.1289999 0.20999999
-7.4770002 6.2160001 -2.1289999 0.27000001
-7.5029998 6.198 -2.131 0.20999999
-7.506 6.1599998 -2.1259999 0.19
-7.533 6.1430001 -2.128 0.30000001
-7.5599999 6.1459999 -2.1340001 0.20999999
-7.5770001 6.1199999 -2.1329999 0.20999999
-7.5910001 6.092 -2.132 0.18000001
-7.6069999 6.066 -2.131 0.23
-7.6110001 6.0300002 -2.1259999 0.18000001
-7.638 6.0120001 -2.128 0.25
-7.6550002 5.987 -2.128 0.2
-7.6659999 5.9759998 -2.128 0.22
-7.697 5.961 -2.132 0.19
-7.7030001 5.928 -2.128 0.25
-7.7160001 5.8990002 -2.1270001 0.22
-7.7280002 5.8699999 -2.125 0.17
-7.7670002 5.8610001 -2.131 0.28
-7.7820001 5.8340001 -2.1300001 0.22
-7.7930002 5.823 -2.1300001 0.16
-7.8000002 5.79 -2.1270001 0.28
-7.8179998 5.7659998 -2.1270001 0.20999999
-7.8379998 5.7420001 -2.128 0.15000001
-7.8590002 5.7199998 -2.128 0.28999999
-7.8769999 5.6950002 -2.128 0.25
-7.8959999 5.671 -2.1289999 0.25999999
-7.9159999 5.6669998 -2.132 0.27000001
-7.9310002 5.6399999 -2.131 0.28
-7.9520001 5.6170001 -2.132 0.19
-7.9840002 5.6020002 -2.1359999 0.30000001
-7.9920001 5.5700002 -2.1329999 0.22
-8.0170002 5.5510001 -2.1359999 0.17
-8.0550003 5.54 -2.142 0.27000001
-8.0579996 5.5229998 -2.1400001 0.25
-8.0749998 5.4970002 -2.1400001 0.28999999
-8.0939999 5.473 -2.1400001 0.18000001
-8.1219997 5.4549999 -2.1429999 0.25999999
-8.1560001 5.4400001 -2.148 0.25
-8.1660004 5.4099998 -2.1459999 0.25999999
-8.1820002 5.3839998 -2.1459999 0.22
-8.2049999 5.3800001 -2.1500001 0.14
-8.2150002 5.3499999 -2.148 0.20999999
-8.2399998 5.3299999 -2.1500001 0.23
-8.2349997 5.29 -2.1440001 0.22
-8.2550001 5.2659998 -2.145 0.27000001
-8.2819996 5.2470002 -2.148 0.23999999
-8.3149996 5.2309999 -2.152 0.23
-8.309 5.21 -2.1489999 0.30000001
-8.3310003 5.1869998 -2.1500001 0.28999999
-8.3290005 5.1490002 -2.145 0.19
-8.3579998 5.131 -2.1489999 0.27000001
-8.3559999 5.0939999 -2.1440001 0.23
-8.3789997 5.072 -2.1459999 0.28
-8.3950005 5.0450001 -2.1459999 0.27000001
-8.4069996 5.0349998 -2.1470001 0.28
-8.415 5.0040002 -2.145 0.28999999
-8.4320002 4.9780002 -2.145 0.25999999
-8.4329996 4.9429998 -2.141 0.27000001
-8.4569998 4.921 -2.1429999 0.25999999
-8.4940004 4.9070001 -2.1489999 0.28
-8.533 4.8940001 -2.155 0.30000001
-8.559 4.8909998 -2.1600001 0.31
-8.5810003 4.868 -2.1619999 0.31999999
-8.5749998 4.829 -2.1559999 0.28
-8.5880003 4.8010001 -2.1559999 0.23999999
-8.566 4.7529998 -2.1459999 0.18000001
-8.5450001 4.7069998 -2.1370001 0.31999999
-8.5419998 4.6700001 -2.132 0.25
-8.5290003 4.6290002 -2.125 0.27000001
-8.5089998 4.6009998 -2.118 0.28
-8.5170002 4.5700002 -2.1159999 0.27000001
-8.5190001 4.5370002 -2.1129999 0.27000001
-8.5139999 4.5 -2.108 0.28
-8.5209999 4.4699998 -2.1059999 0.27000001
-8.5279999 4.4390001 -2.1040001 0.27000001
-8.5159998 4.4159999 -2.099 0.27000001
-8.5229998 4.3860002 -2.0969999 0.25
-8.5139999 4.348 -2.0910001 0.20999999
-8.5209999 4.3169999 -2.0899999 0.28
-8.526 4.2859998 -2.0869999 0.25
-8.5310001 4.2550001 -2.085 0.19
-8.5249996 4.2189999 -2.0799999 0.25999999
-8.5190001 4.1989999 -2.0769999 0.23999999
-8.5200005 4.1669998 -2.0739999 0.2
-8.5310001 4.1389999 -2.073 0.28
-8.5349998 4.1079998 -2.0710001 0.25
-8.5340004 4.0749998 -2.0669999 0.2
-8.5469999 4.0479999 -2.0669999 0.25999999
-8.5450001 4.0139999 -2.0639999 0.23999999
-8.5500002 4 -2.063 0.19
-8.5450001 3.9649999 -2.059 0.25999999
-8.5380001 3.9289999 -2.0539999 0.23
-8.5500002 3.902 -2.0539999 0.20999999
-8.5500002 3.8699999 -2.0510001 0.25
-8.5640001 3.8440001 -2.0510001 0.2
-8.5600004 3.8099999 -2.0469999 0.12
-8.5620003 3.7950001 -2.046 0.20999999
-8.5530005 3.7590001 -2.0409999 0.11
-8.5609999 3.73 -2.04 0.2
-8.5629997 3.6989999 -2.0380001 0.11
-8.566 3.6689999 -2.0350001 0.18000001
-8.5670004 3.6370001 -2.033 0.050000001
-8.5570002 3.6010001 -2.027 0.18000001
-8.5550003 3.585 -2.026 0.11
-8.5570002 3.5539999 -2.023 0.18000001
-8.5559998 3.5220001 -2.02 0.20999999
-8.5539999 3.49 -2.017 0.1
-8.5629997 3.4619999 -2.016 0.18000001
-8.5609999 3.431 -2.013 0.22
-8.5579996 3.398 -2.01 0.1
-8.5679998 3.3870001 -2.0109999 0.18000001
-8.5430002 3.346 -2.0020001 0.20999999
-8.5550003 3.319 -2.003 0.1
-8.5469999 3.286 -1.998 0.18000001
-8.5500002 3.256 -1.9960001 0.11
-8.5369997 3.22 -1.99 0.19
-8.5579996 3.197 -1.993 0.11
-8.5349998 3.174 -1.9859999 0.19
-8.5410004 3.1459999 -1.985 0.11
-8.5480003 3.1170001 -1.984 0.18000001
-8.5369997 3.0829999 -1.979 0.20999999
-8.5340004 3.052 -1.976 0.19
-8.5469999 3.026 -1.977 0.22
-8.5310001 2.9909999 -1.971 0.18000001
-8.5299997 2.9749999 -1.97 0.23
-8.5340004 2.947 -1.9680001 0.18000001
-8.5249996 2.914 -1.964 0.23999999
-8.5100002 2.8789999 -1.9579999 0.18000001
-8.526 2.8540001 -1.96 0.23999999
-8.4980001 2.8150001 -1.951 0.19
-8.5100002 2.79 -1.952 0.23999999
-8.5019999 2.7720001 -1.948 0.19
-8.4989996 2.7420001 -1.946 0.25
-8.4820004 2.707 -1.939 0.23
-8.4870005 2.6789999 -1.938 0.2
-8.4910002 2.652 -1.938 0.25
-8.474 2.6170001 -1.931 0.23999999
-8.474 2.5880001 -1.929 0.19
-8.4799995 2.575 -1.9299999 0.25999999
-8.4490004 2.5369999 -1.92 0.23999999
-8.4680004 2.5139999 -1.923 0.19
-8.4569998 2.4820001 -1.919 0.27000001
-8.4519997 2.451 -1.915 0.23999999
-8.448 2.4219999 -1.913 0.19
-8.4519997 2.3940001 -1.9119999 0.27000001
-8.4329996 2.3740001 -1.906 0.23
-8.4630003 2.3540001 -1.9119999 0.20999999
-8.4440002 2.3199999 -1.905 0.25
-8.4230003 2.286 -1.899 0.23
-8.448 2.2639999 -1.903 0.19
-8.434 2.2320001 -1.898 0.25999999
-8.4259996 2.2019999 -1.8940001 0.20999999
-8.4289999 2.174 -1.893 0.12
-8.4060001 2.154 -1.887 0.20999999
-8.3970003 2.1240001 -1.883 0.19
-8.4139996 2.0999999 -1.886 0.27000001
-8.3920002 2.0669999 -1.8789999 0.2
-8.3909998 2.039 -1.877 0.23999999
-8.3950005 2.0120001 -1.877 0.23999999
-8.3850002 1.9960001 -1.873 0.22
