# .PCD v0.7 - Point Cloud Data file format
VERSION 0.7
FIELDS x y z intensity
SIZE 4 4 4 4
TYPE F F F F
COUNT 1 1 1 1
WIDTH 1393
HEIGHT 1
VIEWPOINT 0 0 0 1 0 0 0
POINTS 1393
DATA ascii
-10.144 -6.836 0.18799999 0.30000001
-10.097 -6.8280001 0.18799999 0.33000001
-10.027 -6.8260002 0.18799999 0.28999999
-9.9729996 -6.835 0.18799999 0.33000001
-9.9040003 -6.8330002 0.18799999 0.30000001
-9.8360004 -6.8330002 0.18799999 0.30000001
-9.7790003 -6.8379998 0.18799999 0.30000001
-9.7069998 -6.8330002 0.18799999 0.30000001
-9.6479998 -6.8369999 0.18799999 0.31999999
-9.6029997 -6.8280001 0.18799999 0.31999999
-9.5389996 -6.8270001 0.18799999 0.33000001
-9.4750004 -6.8270001 0.18799999 0.34
-9.4169998 -6.829 0.18799999 0.33000001
-9.3579998 -6.8319998 0.189 0.33000001
-9.3009996 -6.835 0.189 0.34
-9.2539997 -6.822 0.189 0.34
-9.1940002 -6.823 0.189 0.34
-9.1370001 -6.8249998 0.189 0.33000001
-9.0769997 -6.8249998 0.189 0.28999999
-9.0209999 -6.8270001 0.189 0.34999999
-8.967 -6.8309999 0.189 0.34
-8.9160004 -6.835 0.189 0.34
-8.8699999 -6.823 0.189 0.34
-8.8140001 -6.823 0.189 0.33000001
-8.7629995 -6.8280001 0.189 0.31999999
-8.6960001 -6.8189998 0.189 0.33000001
-8.6599998 -6.835 0.189 0.31999999
-8.6070004 -6.8379998 0.189 0.31999999
-8.5530005 -6.8379998 0.189 0.30000001
-8.5109997 -6.8270001 0.19 0.34
-8.4689999 -6.8369999 0.19 0.33000001
-8.4200001 -6.8410001 0.19 0.31
-8.3660002 -6.8400002 0.19 0.30000001
-8.3109999 -6.8390002 0.19 0.31999999
-8.2690001 -6.848 0.19 0.31
-8.2229996 -6.8530002 0.19 0.30000001
-8.1940002 -6.8509998 0.19 0.30000001
-8.1330004 -6.8429999 0.19 0.28999999
-8.0900002 -6.8499999 0.19 0.30000001
-8.0530005 -6.8629999 0.19 0.28999999
-7.9899998 -6.8530002 0.19 0.30000001
-7.9450002 -6.8569999 0.19 0.30000001
-7.9000001 -6.862 0.19 0.28
-7.8579998 -6.8470001 0.19 0.28999999
-7.816 -6.8530002 0.19 0.31
-7.7729998 -6.8590002 0.19 0.31
-7.71 -6.8460002 0.19 0.28999999
-7.6669998 -6.8520002 0.191 0.30000001
-7.631 -6.862 0.191 0.31
-7.5770001 -6.8559999 0.191 0.31999999
-7.5419998 -6.8470001 0.191 0.33000001
-7.5 -6.8520002 0.191 0.34
-7.4569998 -6.855 0.191 0.34
-7.4060001 -6.8509998 0.191 0.28999999
-7.3720002 -6.8629999 0.191 0.34999999
-7.3189998 -6.8559999 0.191 0.30000001
-3.273 -3.075 0.2 0.15000001
-7.2810001 -6.8639998 0.191 0.17
-3.2179999 -3.0420001 0.2 0.25999999
-3.178 -3.023 0.2 0.16
-3.177 -3.0420001 0.2 0.46000001
-3.1559999 -3.04 0.2 0.25
-3.1500001 -3.053 0.2 0.25
-3.131 -3.0550001 0.2 0.25999999
-3.118 -3.0510001 0.2 0.27000001
-3.1059999 -3.0580001 0.2 0.23999999
-3.1099999 -3.082 0.2 0.28
-3.079 -3.0699999 0.2 0.31999999
-3.0799999 -3.0899999 0.2 0.31
-3.063 -3.0929999 0.2 0.28
-3.0680001 -3.118 0.2 0.36000001
-3.0680001 -3.1270001 0.2 0.25
-3.052 -3.131 0.2 0.38
-3.056 -3.155 0.2 0.22
-3.0439999 -3.1619999 0.2 0.18000001
-3.0669999 -3.2060001 0.2 0.43000001
-3.0610001 -3.22 0.2 0.1
-6.4369998 -6.8569999 0.192 0.37
-6.4039998 -6.8429999 0.192 0.31999999
-6.3720002 -6.8520002 0.192 0.31999999
-6.3309999 -6.8509998 0.192 0.31999999
-6.2839999 -6.8429999 0.192 0.31999999
-6.2529998 -6.8520002 0.192 0.38
-6.2030001 -6.8410001 0.192 0.31
-6.1680002 -6.8449998 0.192 0.31999999
-6.1469998 -6.8429999 0.192 0.38999999
-6.118 -6.8530002 0.192 0.31999999
-6.072 -6.8460002 0.192 0.31999999
-6.033 -6.8449998 0.192 0.33000001
-6 -6.8499999 0.192 0.33000001
-5.9619999 -6.8499999 0.192 0.34
-5.927 -6.8530002 0.192 0.34
-5.9039998 -6.849 0.192 0.33000001
-5.8649998 -6.8460002 0.192 0.31999999
-5.8280001 -6.8460002 0.193 0.31999999
-5.7930002 -6.849 0.193 0.31999999
-5.7529998 -6.8439999 0.193 0.31999999
-5.723 -6.8530002 0.193 0.31999999
-5.6869998 -6.8520002 0.193 0.33000001
-5.6609998 -6.8429999 0.193 0.31999999
-5.6339998 -6.8540001 0.193 0.38
-5.598 -6.855 0.193 0.31
-5.5640001 -6.8569999 0.193 0.33000001
-5.5250001 -6.8520002 0.193 0.33000001
-5.4899998 -6.8530002 0.193 0.33000001
-5.4520001 -6.849 0.193 0.33000001
-5.4289999 -6.842 0.193 0.31999999
-5.3930001 -6.8400002 0.193 0.33000001
-5.3639998 -6.848 0.193 0.31999999
-5.323 -6.8390002 0.193 0.33000001
-5.296 -6.8499999 0.193 0.34
-5.2639999 -6.8520002 0.193 0.34
-5.2259998 -6.8460002 0.193 0.33000001
-5.2049999 -6.842 0.193 0.34
-5.1739998 -6.8449998 0.193 0.34
-5.138 -6.842 0.193 0.34
-5.1079998 -6.8470001 0.193 0.34999999
-5.0739999 -6.8449998 0.193 0.34999999
-5.04 -6.8449998 0.193 0.34999999
-5.0089998 -6.848 0.193 0.34
-4.987 -6.8400002 0.193 0.34999999
-4.961 -6.849 0.193 0.34
-4.9260001 -6.8460002 0.193 0.34
-4.8969998 -6.8499999 0.193 0.34
-4.8629999 -6.848 0.193 0.34
-4.8379998 -6.8579998 0.193 0.34999999
-4.8080001 -6.862 0.193 0.34
-4.7810001 -6.8460002 0.19400001 0.34999999
-4.7490001 -6.8460002 0.19400001 0.36000001
-4.7189999 -6.848 0.19400001 0.34999999
-4.6849999 -6.8449998 0.19400001 0.34
-4.6550002 -6.8460002 0.19400001 0.33000001
-4.6220002 -6.8439999 0.19400001 0.33000001
-4.5900002 -6.8439999 0.19400001 0.34
-4.5749998 -6.8439999 0.19400001 0.34999999
-4.5489998 -6.8520002 0.19400001 0.34999999
-4.513 -6.8439999 0.19400001 0.36000001
-4.4819999 -6.8429999 0.19400001 0.36000001
-4.4549999 -6.849 0.19400001 0.34999999
-4.4239998 -6.848 0.19400001 0.36000001
-4.3990002 -6.8569999 0.19400001 0.36000001
-4.3769999 -6.8449998 0.19400001 0.34999999
-4.3530002 -6.855 0.19400001 0.34999999
-4.3189998 -6.849 0.19400001 0.31999999
-4.2839999 -6.842 0.19400001 0.34
-4.2600002 -6.8499999 0.19400001 0.37
-4.2280002 -6.8460002 0.19400001 0.33000001
-4.211 -6.8429999 0.19400001 0.34
-4.1859999 -6.8509998 0.19400001 0.34
-4.1599998 -6.8569999 0.19400001 0.38
-4.1279998 -6.8509998 0.19400001 0.36000001
-4.0970001 -6.849 0.19400001 0.36000001
-4.0700002 -6.8530002 0.19400001 0.33000001
-4.0419998 -6.8540001 0.19400001 0.37
-4.02 -6.8410001 0.19400001 0.33000001
-3.994 -6.8470001 0.19400001 0.34999999
-3.973 -6.8590002 0.19400001 0.34
-3.938 -6.849 0.19400001 0.34
-3.9159999 -6.8600001 0.19400001 0.34999999
-3.8889999 -6.8629999 0.19400001 0.34999999
-3.855 -6.8530002 0.19400001 0.34
-3.8410001 -6.8530002 0.19400001 0.36000001
-3.8199999 -6.8649998 0.19400001 0.36000001
-3.7850001 -6.8530002 0.19400001 0.36000001
-3.757 -6.8540001 0.19400001 0.34
-3.7320001 -6.8590002 0.19400001 0.34
-3.7019999 -6.855 0.19400001 0.34999999
-3.675 -6.8559999 0.19400001 0.36000001
-3.6619999 -6.8579998 0.19400001 0.34999999
-3.6289999 -6.8460002 0.19400001 0.34999999
-3.6040001 -6.8520002 0.19400001 0.36000001
-3.579 -6.8569999 0.19400001 0.36000001
-3.55 -6.8540001 0.19499999 0.36000001
-3.5250001 -6.8579998 0.19499999 0.37
-3.5020001 -6.8649998 0.19499999 0.36000001
-3.483 -6.855 0.19499999 0.36000001
-3.45 -6.8439999 0.19499999 0.37
-3.434 -6.8649998 0.19499999 0.36000001
-3.3989999 -6.849 0.19499999 0.38
-3.3729999 -6.8509998 0.19499999 0.37
-3.349 -6.8559999 0.19499999 0.37
-3.319 -6.849 0.19499999 0.38
-3.3080001 -6.8540001 0.19499999 0.38
-3.2850001 -6.8610001 0.19499999 0.34
-3.2520001 -6.8460002 0.19499999 0.38999999
-3.2279999 -6.8520002 0.19499999 0.38
-3.207 -6.862 0.19499999 0.33000001
-3.175 -6.8499999 0.19499999 0.38999999
-3.151 -6.855 0.19499999 0.34
-3.1370001 -6.8530002 0.19499999 0.38999999
-3.1099999 -6.8499999 0.19499999 0.34999999
-3.0829999 -6.8470001 0.19499999 0.36000001
-3.0639999 -6.862 0.19499999 0.36000001
-3.0320001 -6.8470001 0.19499999 0.36000001
-3.0079999 -6.8509998 0.19499999 0.38
-2.984 -6.855 0.19499999 0.38
-2.971 -6.855 0.19499999 0.37
-2.944 -6.8530002 0.19499999 0.38
-2.9200001 -6.8559999 0.19499999 0.38
-2.8940001 -6.855 0.19499999 0.38999999
-2.8659999 -6.8470001 0.19499999 0.40000001
-2.842 -6.8499999 0.19499999 0.40000001
-2.816 -6.848 0.19499999 0.38
-2.802 -6.8449998 0.19499999 0.38
-2.78 -6.8520002 0.19499999 0.40000001
-2.7509999 -6.842 0.19499999 0.38
-2.7290001 -6.8509998 0.19499999 0.38999999
-2.7049999 -6.8520002 0.19499999 0.40000001
-2.678 -6.8470001 0.19499999 0.38999999
-2.655 -6.8520002 0.19499999 0.38999999
-2.642 -6.849 0.19499999 0.38999999
-2.6159999 -6.8460002 0.19499999 0.36000001
-2.5940001 -6.8520002 0.19499999 0.41
-2.5669999 -6.8449998 0.19499999 0.40000001
-2.5450001 -6.8509998 0.19499999 0.34
-2.52 -6.8520002 0.19499999 0.41
-2.507 -6.8499999 0.19499999 0.34999999
-2.4809999 -6.8429999 0.19499999 0.41
-2.461 -6.8559999 0.19499999 0.34999999
-2.4349999 -6.8509998 0.19499999 0.41999999
-2.4119999 -6.855 0.19499999 0.40000001
-2.3870001 -6.8530002 0.19499999 0.34999999
-2.3659999 -6.862 0.19499999 0.43000001
-2.339 -6.8520002 0.19499999 0.36000001
-2.3280001 -6.8540001 0.19499999 0.38
-2.302 -6.8499999 0.19499999 0.37
-2.276 -6.842 0.19499999 0.41999999
-2.2539999 -6.849 0.19499999 0.34999999
-2.2279999 -6.8410001 0.19499999 0.44999999
-2.207 -6.8499999 0.19499999 0.36000001
-2.187 -6.862 0.19499999 0.37
-2.1730001 -6.8559999 0.19499999 0.38999999
-2.148 -6.8499999 0.19499999 0.38999999
-2.1229999 -6.8449998 0.19499999 0.38999999
-2.102 -6.855 0.19499999 0.38999999
-2.0799999 -6.8579998 0.19499999 0.41999999
-2.0569999 -6.8629999 0.19499999 0.41
-2.0439999 -6.8559999 0.19499999 0.41
-2.02 -6.8530002 0.19499999 0.41
-1.9960001 -6.8520002 0.19499999 0.41
-1.975 -6.862 0.19499999 0.41
-1.949 -6.8530002 0.19499999 0.41
-1.9299999 -6.8649998 0.19499999 0.34
-1.903 -6.8530002 0.19499999 0.41999999
-1.895 -6.8639998 0.19499999 0.34
-1.87 -6.8600001 0.19499999 0.43000001
-1.846 -6.8559999 0.19499999 0.41
-1.824 -6.8600001 0.19499999 0.34999999
-1.801 -6.8579998 0.19499999 0.43000001
-1.781 -6.8699999 0.19499999 0.36000001
-1.755 -6.8600001 0.19499999 0.43000001
-1.742 -6.8530002 0.19599999 0.41
-1.721 -6.862 0.19599999 0.34
-1.697 -6.8559999 0.19599999 0.44
-1.679 -6.8769999 0.19499999 0.36000001
-1.652 -6.8600001 0.19599999 0.44999999
-1.63 -6.862 0.19599999 0.36000001
-1.607 -6.8629999 0.19599999 0.38
-1.585 -6.8639998 0.19599999 0.46000001
-1.574 -6.8660002 0.19599999 0.36000001
-1.551 -6.8649998 0.19599999 0.38999999
-1.528 -6.862 0.19599999 0.46000001
-1.508 -6.8730001 0.19599999 0.38
-1.484 -6.8699999 0.19599999 0.38999999
-1.461 -6.8670001 0.19599999 0.38999999
-1.449 -6.8629999 0.19599999 0.46000001
-1.431 -6.8829999 0.19599999 0.30000001
-1.404 -6.8600001 0.19599999 0.49000001
-1.386 -6.8860002 0.19599999 0.30000001
-1.36 -6.8670001 0.19599999 0.47999999
-1.342 -6.8889999 0.19599999 0.30000001
-1.316 -6.8720002 0.19599999 0.47999999
-1.308 -6.8850002 0.19599999 0.31
-1.283 -6.8720002 0.19599999 0.5
-1.262 -6.8779998 0.19599999 0.31999999
-1.237 -6.8639998 0.19599999 0.5
-1.219 -6.888 0.19599999 0.31
-1.192 -6.8600001 0.19599999 0.51999998
-1.174 -6.8850002 0.19599999 0.30000001
-1.161 -6.8769999 0.19599999 0.50999999
-1.1390001 -6.875 0.19599999 0.31999999
-1.1160001 -6.869 0.19599999 0.51999998
-1.097 -6.8940001 0.19599999 0.31999999
-1.071 -6.8660002 0.19599999 0.51999998
-1.052 -6.8850002 0.19599999 0.34
-1.028 -6.8720002 0.19599999 0.52999997
-1.018 -6.8839998 0.19599999 0.34
-0.99400002 -6.8670001 0.19599999 0.54000002
-0.97500002 -6.8899999 0.19599999 0.33000001
-0.94999999 -6.869 0.19599999 0.44999999
-0.92900002 -6.8720002 0.19599999 0.41999999
-0.90799999 -6.8829999 0.19599999 0.43000001
-0.88599998 -6.8860002 0.19599999 0.34
-0.87300003 -6.869 0.19599999 0.54000002
-0.85399997 -6.8940001 0.19599999 0.34
-0.82999998 -6.8709998 0.19599999 0.54000002
-0.81 -6.8870001 0.19599999 0.33000001
-0.787 -6.8779998 0.19599999 0.52999997
-0.76499999 -6.8800001 0.19599999 0.31999999
-0.74199998 -6.8649998 0.19599999 0.55000001
-0.73299998 -6.882 0.19599999 0.31999999
-0.70899999 -6.868 0.19599999 0.55000001
-0.68900001 -6.8779998 0.19599999 0.33000001
-0.66600001 -6.8740001 0.19599999 0.54000002
-0.64499998 -6.8740001 0.19599999 0.34
-0.62199998 -6.8699999 0.19599999 0.56999999
-0.602 -6.888 0.19599999 0.34
-0.58899999 -6.8649998 0.19599999 0.46000001
-0.56900001 -6.8850002 0.19599999 0.34
-0.54699999 -6.881 0.19599999 0.47
-0.52499998 -6.8730001 0.19599999 0.36000001
-0.50300002 -6.8660002 0.19599999 0.47999999
-0.48199999 -6.8839998 0.19599999 0.36000001
-0.45899999 -6.8670001 0.19599999 0.47999999
-0.449 -6.8779998 0.19599999 0.37
-0.42699999 -6.869 0.19599999 0.57999998
-0.40599999 -6.8769999 0.19599999 0.34
-0.384 -6.8740001 0.19599999 0.5
-0.36399999 -6.8990002 0.19599999 0.37
-0.34 -6.8660002 0.19599999 0.47999999
-0.33000001 -6.8790002 0.19599999 0.38
-0.308 -6.8759999 0.19599999 0.46000001
-0.287 -6.8769999 0.19599999 0.36000001
-0.26499999 -6.8670001 0.19599999 0.49000001
-0.243 -6.8740001 0.19599999 0.38
-0.221 -6.8649998 0.19599999 0.50999999
-0.2 -6.8759999 0.19599999 0.38
-0.189 -6.8720002 0.19599999 0.5
-0.168 -6.8699999 0.19599999 0.38
-0.146 -6.8670001 0.19599999 0.50999999
-0.125 -6.8850002 0.19599999 0.38
-0.103 -6.8660002 0.19599999 0.47999999
-0.081 -6.8759999 0.19599999 0.36000001
-0.059999999 -6.8660002 0.19599999 0.5
-0.048999999 -6.8740001 0.19599999 0.38
-0.027000001 -6.8779998 0.19599999 0.41999999
-0.0060000001 -6.8530002 0.19599999 0.61000001
0.016000001 -6.8850002 0.19599999 0.34999999
0.037999999 -6.9200001 0.19599999 0.38999999
0.061000001 -6.9899998 0.19599999 0.28999999
0.082000002 -6.9619999 0.19599999 0.23
0.093000002 -6.9499998 0.19599999 0.18000001
0.115 -6.9520001 0.19599999 0.12
0.13699999 -6.9549999 0.19599999 0.15000001
0.37599999 -15.152 0.183 0.19
0.42300001 -15.131 0.183 0.25999999
0.47099999 -15.155 0.183 0.17
0.51700002 -15.098 0.183 0.62
0.58999997 -15.139 0.183 0.51999998
0.63700002 -15.133 0.183 0.46000001
0.68300003 -15.103 0.183 0.64999998
0.73199999 -15.131 0.183 0.28999999
0.77899998 -15.12 0.183 0.36000001
0.82599998 -15.11 0.183 0.56999999
0.85000002 -15.111 0.183 0.28
0.898 -15.116 0.183 0.41
0.94599998 -15.113 0.183 0.34999999
0.99299997 -15.104 0.183 0.23999999
1.041 -15.105 0.183 0.34999999
1.087 -15.091 0.183 0.25999999
1.136 -15.104 0.183 0.34999999
1.16 -15.102 0.183 0.31
1.207 -15.092 0.183 0.27000001
1.256 -15.108 0.183 0.38
1.303 -15.1 0.183 0.23
1.353 -15.122 0.183 0.34
1.401 -15.132 0.183 0
1.534 -15.742 0.182 0.2
1.582 -15.725 0.182 0.36000001
1.632 -15.722 0.182 0.23
1.684 -15.745 0.182 0.23999999
1.73 -15.706 0.182 0.38
1.7819999 -15.726 0.182 0.18000001
1.8279999 -15.688 0.182 0.38
1.852 -15.68 0.182 0
1.887 -15.561 0.182 0.13
1.942 -15.6 0.182 0.1
1.988 -15.578 0.182 0
2.0350001 -15.556 0.182 0
2.079 -15.508 0.182 0.059999999
2.1140001 -15.586 0.182 0.14
2.1719999 -15.642 0.182 0.090000004
2.2290001 -15.691 0.182 0.079999998
2.2809999 -15.704 0.182 0.14
2.3429999 -15.78 0.182 0.25
2.392 -15.768 0.182 0.36000001
2.4449999 -15.782 0.182 0.22
2.477 -15.822 0.182 0.23999999
2.523 -15.792 0.182 0.17
2.576 -15.808 0.182 0.47999999
2.6270001 -15.804 0.182 0.23
2.8770001 -16.968 0.18000001 0.28999999
2.9330001 -16.975 0.18000001 0.22
2.987 -16.972 0.18000001 0
2.9949999 -16.861 0.18000001 0
2.845 -15.741 0.182 0
3.1689999 -17.211 0.17900001 0
3.1530001 -16.827999 0.18000001 0.07
3.155 -16.555 0.18000001 0.079999998
3.1600001 -16.302999 0.18099999 0.14
3.174 -16.107 0.18099999 0.18000001
4.2150002 -21.169001 0.17299999 0.31
4.2839999 -21.167 0.17299999 0.23
4.349 -21.15 0.17299999 0.18000001
4.421 -21.164 0.17299999 0.38999999
4.4899998 -21.159 0.17299999 0.22
4.5619998 -21.171 0.17299999 0.20999999
4.6279998 -21.156 0.17299999 0.38
4.664 -21.160999 0.17299999 0.22
4.7360001 -21.169001 0.17299999 0.20999999
4.8060002 -21.167999 0.17299999 0.36000001
4.875 -21.166 0.17299999 0.23
4.948 -21.176001 0.17299999 0.2
5.0159998 -21.17 0.17299999 0.34999999
5.085 -21.164 0.17299999 0.2
5.1240001 -21.179001 0.17299999 0.37
5.191 -21.163 0.17299999 0.2
5.263 -21.17 0.17299999 0.36000001
5.3319998 -21.165001 0.17299999 0.23
5.4000001 -21.152 0.17299999 0.2
5.4749999 -21.17 0.17299999 0.37
5.5450001 -21.164 0.17299999 0.22
5.5799999 -21.160999 0.17299999 0
5.5359998 -20.732 0.17299999 0.13
5.6279998 -20.815001 0.17299999 0.13
5.6890001 -20.782 0.17299999 0.34999999
5.717 -20.629 0.17299999 0.14
5.8109999 -20.715 0.17299999 0.40000001
5.8769999 -20.698 0.17299999 0.23999999
5.9120002 -20.701 0.17299999 0.23
5.9819999 -20.697001 0.17299999 0
5.7950001 -19.823 0.17399999 0
5.8590002 -19.809999 0.17399999 0
5.9070001 -19.742001 0.175 0
5.9559999 -19.681 0.175 0
6.0149999 -19.764999 0.17399999 0.1
6.1279998 -19.909 0.17399999 0
6.1370001 -19.719999 0.17399999 0
6.2249999 -19.782 0.17399999 0
7.5139999 -23.601 0.168 0
7.618 -23.673 0.168 0
6.4159999 -19.632999 0.17399999 0.20999999
6.467 -19.582001 0.175 0.25999999
6.5229998 -19.542999 0.175 0
7.9970002 -23.693001 0.168 0
8.0649996 -23.650999 0.168 0
8.0979996 -23.504999 0.168 0
8.2510004 -23.708 0.168 0
8.3330002 -23.823 0.167 0
8.4259996 -23.846001 0.167 0
8.5190001 -23.870001 0.167 0
8.6149998 -23.441999 0.168 0
8.6969995 -23.437 0.168 0
8.7779999 -23.541 0.168 0
8.8710003 -23.563999 0.167 0.039999999
7.165 -18.868 0.175 0.13
7.2049999 -18.792999 0.175 0
7.1929998 -18.587 0.176 0
7.2930002 -18.671 0.175 0
7.3130002 -18.551001 0.176 0
7.3449998 -18.547001 0.176 0
2.928 -7.303 0.19400001 0.16
2.957 -7.309 0.19400001 0
2.9719999 -7.2789998 0.19400001 0
2.9549999 -7.1739998 0.19400001 0
2.9430001 -7.0809999 0.19499999 0
2.924 -7.007 0.19499999 0.039999999
2.931 -6.961 0.19499999 0.13
2.9449999 -6.9330001 0.19499999 0.27000001
2.914 -6.803 0.19499999 0
2.99 -6.9180002 0.19499999 0
7.8920002 -18.000999 0.176 0
7.9380002 -17.952 0.176 0
7.9619999 -17.93 0.176 0
8.0019999 -17.871 0.176 0
8.0500002 -17.827 0.176 0
8.0959997 -17.780001 0.176 0
8.1420002 -17.733 0.176 0
8.1929998 -17.695999 0.176 0
8.2410002 -17.653999 0.176 0
8.2550001 -17.612 0.176 0
8.3030005 -17.572001 0.176 0
8.3450003 -17.516001 0.176 0
8.3970003 -17.485001 0.176 0.090000004
8.4289999 -17.412001 0.176 0.13
8.4809999 -17.379999 0.177 0.16
8.5010004 -17.351999 0.177 0
8.5489998 -17.311001 0.177 0
8.5970001 -17.271 0.177 0
8.6450005 -17.232 0.177 0
8.6920004 -17.190001 0.177 0
9.0240002 -16.85 0.177 0
9.073 -16.815001 0.177 0
9.0880003 -16.778999 0.177 0
9.1330004 -16.737 0.177 0
9.184 -16.704 0.177 0
9.2229996 -16.650999 0.177 0
9.2709999 -16.615 0.177 0
9.3339996 -16.483 0.177 0.23
9.3479996 -16.448 0.177 0.25
9.3950005 -16.410999 0.177 0
9.4449997 -16.378 0.177 0
9.5209999 -16.274 0.177 0.28
9.5620003 -16.226999 0.177 0.20999999
5.908 -9.974 0.189 0.25
5.901 -9.927 0.189 0
5.948 -9.934 0.189 0
6.0180001 -9.9799995 0.18799999 0
5.882 -9.6870003 0.189 0
5.776 -9.3809996 0.189 0
5.8699999 -9.4659996 0.189 0
5.8509998 -9.4029999 0.189 0.13
5.915 -9.4379997 0.189 0
6.5539999 -10.381 0.18700001 0.059999999
5.875 -9.2460003 0.189 0.14
5.9120002 -9.2390003 0.189 0
6.7839999 -10.523 0.18700001 0
5.881 -9.0970001 0.19 0
6.908 -10.605 0.18700001 0
6.9879999 -10.653 0.18700001 0
5.8639998 -8.8859997 0.19 0.050000001
5.888 -8.8629999 0.19 0.16
5.9130001 -8.8389997 0.19 0
5.8899999 -8.7460003 0.19 0
7.3909998 -10.889 0.186 0
7.4429998 -10.929 0.186 0
5.888 -8.5970001 0.19 0
7.605 -11.017 0.186 0
7.6090002 -10.948 0.186 0
7.7800002 -11.119 0.185 0
7.8730001 -11.178 0.185 0
7.3940001 -10.43 0.18700001 0
7.3990002 -10.403 0.18700001 0
7.4310002 -10.379 0.18700001 0
7.4520001 -10.339 0.18700001 0
7.4780002 -10.307 0.18700001 0
7.5079999 -10.281 0.18700001 0
5.8839998 -7.987 0.191 0
5.8460002 -7.7810001 0.191 0.55000001
5.8850002 -7.7820001 0.191 0
5.862 -7.7020001 0.191 0
5.8699999 -7.6630001 0.192 0
7.6849999 -9.9860001 0.18700001 0
5.8509998 -7.5640001 0.192 0.1
5.875 -7.5450001 0.192 0
5.8850002 -7.5100002 0.192 0
6.6020002 -8.3649998 0.19 0.1
5.868 -7.3930001 0.192 0.23
5.8979998 -7.382 0.192 0.16
5.915 -7.381 0.192 0.090000004
5.96 -7.388 0.192 0.15000001
5.9910002 -7.3790002 0.192 0.12
5.9920001 -7.3340001 0.192 0.079999998
5.9889998 -7.2820001 0.192 0
5.8800001 -7.105 0.192 0
5.8740001 -7.053 0.192 0.07
5.8579998 -7.0120001 0.192 0.14
5.8579998 -6.967 0.192 0.27000001
5.8720002 -6.9400001 0.192 0.25999999
5.9109998 -6.941 0.192 0.38999999
5.9260001 -6.8720002 0.192 0.51999998
5.9770002 -6.8860002 0.192 0.37
6 -6.8909998 0.192 0.30000001
6.0359998 -6.888 0.192 0.38
6.073 -6.8870001 0.192 0.36000001
5.9710002 -6.7290001 0.193 0.18000001
5.9990001 -6.7179999 0.193 0.19
6.0430002 -6.724 0.192 0.70999998
6.0320001 -6.6700001 0.193 0.28
6.0869999 -6.7090001 0.192 0.11
6.2919998 -6.8899999 0.192 0.34
6.3330002 -6.8920002 0.192 0.34
6.3699999 -6.8889999 0.192 0.34
6.4109998 -6.8889999 0.192 0.34
6.4489999 -6.8860002 0.192 0.31999999
6.4710002 -6.888 0.192 0.33000001
6.52 -6.8959999 0.192 0.31
6.5619998 -6.8979998 0.192 0.31999999
6.605 -6.8990002 0.192 0.31999999
6.6389999 -6.8909998 0.192 0.31
6.6789999 -6.888 0.192 0.30000001
6.723 -6.8899999 0.192 0.33000001
6.7529998 -6.9000001 0.192 0.28999999
6.796 -6.9000001 0.191 0.33000001
6.8330002 -6.8940001 0.191 0.33000001
6.882 -6.8990002 0.191 0.31
6.9260001 -6.9000001 0.191 0.30000001
6.9689999 -6.8990002 0.191 0.30000001
7.0089998 -6.8959999 0.191 0.30000001
7.0430002 -6.9070001 0.191 0.28999999
7.085 -6.9039998 0.191 0.31999999
7.1339998 -6.908 0.191 0.28999999
7.1729999 -6.9029999 0.191 0.28999999
7.2199998 -6.9050002 0.191 0.28999999
7.2729998 -6.9109998 0.191 0.28999999
7.3179998 -6.9099998 0.191 0.28
7.3460002 -6.915 0.191 0.28
7.3940001 -6.9159999 0.191 0.28999999
7.4320002 -6.908 0.191 0.28999999
7.4860001 -6.914 0.191 0.28999999
7.54 -6.9200001 0.191 0.27000001
7.5780001 -6.9120002 0.191 0.30000001
7.625 -6.9099998 0.191 0.28999999
7.6659999 -6.9250002 0.19 0.30000001
7.7010002 -6.9130001 0.19 0.28
7.7550001 -6.9180002 0.19 0.28999999
7.7969999 -6.9109998 0.19 0.30000001
7.8449998 -6.9099998 0.19 0.30000001
7.9029999 -6.9169998 0.19 0.31999999
7.9460001 -6.9099998 0.19 0.31
7.9840002 -6.921 0.19 0.31999999
8.0349998 -6.921 0.19 0.33000001
8.0909996 -6.9260001 0.19 0.31999999
8.1269999 -6.9120002 0.19 0.30000001
8.1730003 -6.9070001 0.19 0.30000001
8.224 -6.9050002 0.19 0.31999999
8.2720003 -6.9229999 0.19 0.31
8.3210001 -6.9200001 0.19 0.31
8.375 -6.921 0.19 0.31999999
8.4359999 -6.9260001 0.19 0.34
8.4700003 -6.9089999 0.19 0.34999999
8.5319996 -6.915 0.189 0.33000001
8.5909996 -6.9190001 0.189 0.34
8.6219997 -6.921 0.189 0.34
8.6829996 -6.9250002 0.189 0.34
8.7360001 -6.9229999 0.189 0.34
8.7889996 -6.9200001 0.189 0.34999999
8.8360004 -6.9120002 0.189 0.34999999
8.9040003 -6.9200001 0.189 0.34
8.948 -6.9089999 0.189 0.34
9.0050001 -6.9299998 0.189 0.34
9.0600004 -6.927 0.189 0.34
9.1129999 -6.9229999 0.189 0.34999999
9.1689997 -6.9190001 0.189 0.34
9.2290001 -6.9190001 0.189 0.34
9.2869997 -6.9180002 0.189 0.31999999
9.3430004 -6.9130001 0.18799999 0.31999999
9.3859997 -6.9219999 0.18799999 0.33000001
9.4449997 -6.9200001 0.18799999 0.33000001
9.5050001 -6.9180002 0.18799999 0.31999999
9.5679998 -6.9180002 0.18799999 0.31999999
9.6300001 -6.9169998 0.18799999 0.31999999
9.7019997 -6.9219999 0.18799999 0.31999999
9.7580004 -6.9159999 0.18799999 0.31999999
9.8129997 -6.9320002 0.18799999 0.31
9.8780003 -6.9299998 0.18799999 0.31999999
9.9370003 -6.9260001 0.18799999 0.31999999
10.01 -6.9299998 0.18799999 0.31
10.063 -6.9200001 0.18799999 0.31
10.133 -6.9200001 0.18700001 0.31999999
10.204 -6.9219999 0.18700001 0.30000001
10.252 -6.9310002 0.18700001 0.31
10.321 -6.9310002 0.18700001 0.31
10.393 -6.9310002 0.18700001 0.30000001
10.467 -6.9330001 0.18700001 0.31
10.52 -6.921 0.18700001 0.30000001
10.599 -6.9250002 0.18700001 0.30000001
10.665 -6.9439998 0.18700001 0.34
10.734 -6.941 0.18700001 0.31999999
10.801 -6.9359999 0.18700001 0.31999999
10.875 -6.9349999 0.186 0.31999999
10.953 -6.9359999 0.186 0.31
11.022 -6.9320002 0.186 0.31999999
11.088 -6.9239998 0.186 0.31
11.157 -6.9429998 0.186 0.31999999
11.235 -6.9419999 0.186 0.31
11.316 -6.9439998 0.186 0.31999999
11.381 -6.934 0.186 0.31999999
11.461 -6.9330001 0.186 0.31
11.535 -6.9289999 0.186 0.31
11.614 -6.9260001 0.186 0.30000001
11.689 -6.9460001 0.185 0.30000001
11.776 -6.948 0.185 0.30000001
11.848 -6.9400001 0.185 0.30000001
11.935 -6.941 0.185 0.28999999
12.026 -6.9429998 0.185 0.31999999
12.102 -6.9359999 0.185 0.31
12.186 -6.9330001 0.185 0.31
12.251 -6.9450002 0.185 0.25
12.408 -6.9310002 0.184 0.56999999
12.808 -7.0999999 0.184 0.25
12.939 -7.1199999 0.184 0.58999997
13.019 -7.1110001 0.183 0.17
13.093 -7.0970001 0.183 0.31999999
13.199 -7.1279998 0.183 0.56999999
13.286 -7.1209998 0.183 0.22
13.364 -7.1079998 0.183 0.22
13.485 -7.118 0.183 0.70999998
13.527 -7.086 0.183 0.2
13.57 -7.0549998 0.183 0.60000002
13.64 -7.0370002 0.183 0.41
13.713 -6.9920001 0.183 0.47999999
13.72 -6.9419999 0.183 0.37
13.708 -6.882 0.183 0.44999999
13.73 -6.8390002 0.183 0.28999999
13.712 -6.776 0.183 0.58999997
13.796 -6.7639999 0.183 0.34
13.885 -6.7810001 0.183 0.36000001
13.993 -6.7789998 0.182 0.36000001
14.101 -6.776 0.182 0.36000001
14.216 -6.776 0.182 0.34999999
14.321 -6.7709999 0.182 0.34999999
14.434 -6.7690001 0.182 0.34
14.55 -6.7670002 0.182 0.37
14.669 -6.7950001 0.18099999 0.41
14.769 -6.7839999 0.18099999 0.25
14.894 -6.7849998 0.18099999 0.34999999
15.01 -6.7810001 0.18099999 0.34999999
15.126 -6.776 0.18099999 0.34999999
15.252 -6.7750001 0.18099999 0.31999999
15.368 -6.7969999 0.18000001 0.33000001
15.489 -6.7919998 0.18000001 0.33000001
15.624 -6.7930002 0.18000001 0.38
15.748 -6.7880001 0.18000001 0.31999999
15.883 -6.7870002 0.18000001 0.36000001
16.006001 -6.7800002 0.18000001 0.28
16.156 -6.783 0.17900001 0.40000001
16.264999 -6.7989998 0.17900001 0.34
16.421 -6.803 0.17900001 0.33000001
16.555 -6.7979999 0.17900001 0.31999999
16.691 -6.7919998 0.17900001 0.31999999
16.833 -6.7880001 0.178 0.31
16.992001 -6.79 0.178 0.31999999
17.139999 -6.7870002 0.178 0.31
17.284 -6.8119998 0.178 0.30000001
17.434 -6.8080001 0.177 0.30000001
17.605 -6.8109999 0.177 0.33000001
17.764999 -6.8080001 0.177 0.31999999
17.926001 -6.8049998 0.177 0.31
18.082001 -6.8000002 0.177 0.31
18.239 -6.7930002 0.176 0.28999999
18.400999 -6.8200002 0.176 0.28999999
18.587999 -6.823 0.176 0.31999999
18.764999 -6.8210001 0.176 0.28999999
18.950001 -6.8210001 0.175 0.30000001
19.117001 -6.8130002 0.175 0.28999999
19.309999 -6.8130002 0.175 0.28999999
19.496 -6.809 0.17399999 0.30000001
19.657 -6.8309999 0.17399999 0.28999999
19.855 -6.8299999 0.17399999 0.27000001
20.056 -6.8280001 0.17399999 0.25999999
20.246 -6.822 0.17299999 0.20999999
20.465 -6.8239999 0.17299999 0.41999999
20.667 -6.8189998 0.17299999 0.20999999
11.216 -3.655 0.18799999 0.34
11.281 -3.6359999 0.18799999 0.64999998
11.239 -3.5840001 0.18799999 0.36000001
24.725 -7.7670002 0.16599999 0.13
24.747999 -7.6880002 0.16599999 0.30000001
25.106001 -7.7129998 0.16599999 0.44999999
25.066999 -7.6149998 0.16599999 0.31
24.805 -7.493 0.16599999 0.23999999
26.41 -7.8860002 0.164 0.20999999
25.679001 -7.5799999 0.16500001 0
72.495003 -21.104 0.089000002 0
72.526001 -20.865999 0.090000004 0
72.528 -20.620001 0.090000004 0
72.532997 -20.375 0.090000004 0
72.504997 -20.245001 0.090000004 0
72.512001 -20.002001 0.090000004 0.050000001
68.182999 -18.579 0.097000003 0
35.957001 -9.3870001 0.149 0.11
68.455002 -17.388 0.097000003 0.74000001
68.518997 -17.174999 0.097000003 0
58.683998 -14.127 0.113 0.07
58.370998 -13.955 0.113 0
58.471001 -13.785 0.113 0
58.564999 -13.613 0.113 0
38.453999 -8.8199997 0.145 0
58.757 -13.269 0.113 0
58.932999 -13.114 0.113 0
38.049 -8.3509998 0.146 0
37.907001 -8.2580004 0.146 0
43.681 -9.368 0.13699999 0
43.949001 -9.2810001 0.13699999 0
44.021 -9.1520004 0.13699999 0
43.591 -8.9200001 0.138 0
44.618999 -8.9840002 0.13600001 0.059999999
44.605999 -8.835 0.13600001 0
44.417999 -8.7259998 0.13600001 0
44.279999 -8.5539999 0.13699999 0
44.410999 -8.4350004 0.13600001 0
38.820999 -7.25 0.145 0
38.870998 -7.1329999 0.145 0
44.018002 -7.9310002 0.13699999 0.07
18.955 -3.3380001 0.177 0.28999999
18.92 -3.2709999 0.177 0.28999999
18.912001 -3.2079999 0.177 0.38999999
18.948 -3.1530001 0.177 0.27000001
18.981001 -3.098 0.177 0.49000001
19.305 -3.0880001 0.176 0
47.134998 -7.349 0.133 0
47.771 -7.3709998 0.132 0
48.014 -7.2540002 0.131 0
51.784 -7.6550002 0.125 0
53.431 -7.7270002 0.123 0
54.388 -7.5159998 0.121 0
55.360001 -7.3839998 0.12 0
55.682999 -7.2490001 0.119 0
56.292 -7.1479998 0.119 0
45.360001 -5.3309999 0.13600001 0
40.449001 -2.898 0.14399999 0.16
40.487999 -2.773 0.14399999 0
43.585999 -2.845 0.139 0.12
43.585999 -2.7079999 0.139 0
43.606998 -2.572 0.139 0
43.826 -2.4460001 0.138 0
70.986 -2.717 0.096000001 0
70.990997 -2.494 0.096000001 0
72.907997 6.441 -0.37099999 0
50.897999 6.6079998 -0.199 0.029999999
50.845001 6.763 -0.198 0
64.089996 10.68 -0.30599999 0
35.495998 6.559 -0.079000004 0.25
35.477001 6.671 -0.079000004 0
35.576 6.8049998 -0.079999998 0
59.789001 11.516 -0.27399999 0
73.128998 14.557 -0.382 0
73.004997 14.771 -0.38100001 0.090000004
52.573002 10.816 -0.21699999 0.25999999
52.389999 10.951 -0.21600001 0.19
52.352001 11.114 -0.21600001 0.16
52.216999 11.171 -0.215 0.22
52.117001 11.321 -0.215 0.25
52.068001 11.482 -0.214 0.25
51.995998 11.638 -0.214 0.1
50.743999 11.526 -0.204 0.15000001
51.979 11.977 -0.215 0.30000001
52.077999 12.086 -0.21600001 0.11
52.214001 12.291 -0.21699999 0
52.297001 12.484 -0.21799999 0.12
59.669998 14.438 -0.278 0
59.536999 14.604 -0.27700001 0.11
59.59 14.816 -0.278 0.28
59.588001 15.014 -0.27900001 0.28
44.683998 11.34 -0.15800001 0.12
59.618999 15.321 -0.27900001 0.44999999
59.588001 15.513 -0.28 0.19
59.584 15.712 -0.28 0.37
59.573002 15.909 -0.28 0.19
59.573002 16.110001 -0.28099999 0.37
59.568001 16.309999 -0.28099999 0.2
59.589001 16.416 -0.28099999 0.23999999
40.674999 11.351 -0.127 0.16
59.410999 16.768999 -0.28099999 0.31999999
58.724998 16.775 -0.27599999 0.2
58.048 16.780001 -0.27000001 0.16
36.236 10.608 -0.092 0.17
36.212002 10.725 -0.092 0.34
56.132999 16.705999 -0.25600001 0.18000001
55.528999 16.716 -0.25099999 0.20999999
54.918999 16.721001 -0.24699999 0.18000001
54.316002 16.725 -0.242 0.22
53.747002 16.735001 -0.23800001 0.18000001
53.175999 16.740999 -0.234 0.34
52.613998 16.746 -0.229 0.2
52.056 16.659 -0.22499999 0.13
51.806999 16.759001 -0.223 0.50999999
51.694 16.902 -0.223 0.16
51.771 17.107 -0.22400001 0.17
36.146 12.078 -0.094999999 0.54000002
51.784 17.473 -0.22499999 0.18000001
51.771 17.65 -0.22499999 0.30000001
51.799999 17.75 -0.226 0.30000001
51.799999 17.933001 -0.226 0.30000001
51.789001 18.111 -0.227 0.30000001
51.780998 18.291 -0.227 0.30000001
51.784 18.475 -0.228 0.30000001
51.776001 18.656 -0.228 0.30000001
51.771999 18.837999 -0.228 0.28999999
51.794998 18.938999 -0.229 0.30000001
51.789001 19.122 -0.229 0.30000001
51.779999 19.302999 -0.23 0.28999999
51.777 19.487 -0.23 0.30000001
51.765999 19.669001 -0.23100001 0.30000001
51.757999 19.851999 -0.23100001 0.28999999
51.784 19.955999 -0.23199999 0.30000001
51.786999 20.143999 -0.23199999 0.30000001
51.783001 20.33 -0.233 0.28999999
51.779999 20.517 -0.233 0.28999999
51.764 20.698999 -0.234 0.30000001
51.766998 20.889 -0.234 0.28999999
51.757 21.073999 -0.235 0.28999999
51.785 21.18 -0.235 0.30000001
51.780998 21.368999 -0.236 0.28999999
51.764999 21.552999 -0.236 0.25999999
14.432 6.1360002 0.082000002 0.47999999
14.361 6.1589999 0.082999997 0.43000001
14.323 6.1960001 0.082999997 0.28999999
14.291 6.2090001 0.082999997 0.46000001
14.286 6.2600002 0.082999997 0.28999999
14.259 6.302 0.082999997 0.47999999
14.261 6.3569999 0.082999997 0.43000001
14.296 6.4260001 0.082000002 0.34
14.349 6.5040002 0.082000002 0.44
20.412001 9.3170004 0.028999999 0.34
20.253 9.283 0.029999999 0.34
20.086 9.283 0.032000002 0.34999999
19.924 9.2849998 0.033 0.31999999
19.785999 9.2969999 0.034000002 0.34
19.645 9.3059998 0.035 0.37
19.533001 9.3280001 0.035 0.38
19.417 9.3479996 0.035999998 0.34
19.306 9.3319998 0.037 0.34
19.171 9.3409996 0.037999999 0.34
19.041 9.3520002 0.039000001 0.34
18.913 9.3629999 0.039999999 0.34
18.771999 9.3669996 0.041000001 0.31
18.643999 9.3769999 0.041000001 0.34999999
18.504 9.3800001 0.041999999 0.30000001
18.391001 9.3590002 0.043000001 0.31
18.25 9.3590002 0.044 0.31999999
18.118999 9.3640003 0.045000002 0.33000001
17.995001 9.3719997 0.046 0.31999999
17.870001 9.3789997 0.046999998 0.33000001
17.74 9.382 0.048 0.33000001
17.635 9.3620005 0.048999999 0.33000001
17.507999 9.3649998 0.048999999 0.34
17.389 9.3719997 0.050000001 0.31999999
17.247999 9.3669996 0.050999999 0.30000001
17.125999 9.3699999 0.052000001 0.34
16.995001 9.368 0.052999999 0.28999999
16.889999 9.3800001 0.054000001 0.36000001
16.785999 9.3570004 0.054000001 0.28999999
16.674999 9.3629999 0.055 0.34999999
16.561001 9.3690004 0.056000002 0.34
16.436001 9.3660002 0.057 0.33000001
16.316999 9.3660002 0.057999998 0.34
16.197001 9.3660002 0.057999998 0.33000001
16.079 9.3649998 0.059 0.33000001
15.98 9.3409996 0.059999999 0.34
15.854 9.335 0.061000001 0.31
15.754 9.3430004 0.061999999 0.31999999
15.638 9.3409996 0.061999999 0.33000001
15.551 9.3549995 0.063000001 0.33000001
15.442 9.3559999 0.064000003 0.34
15.348 9.3649998 0.064000003 0.34
15.268 9.3500004 0.064999998 0.33000001
15.173 9.3570004 0.064999998 0.38999999
15.07 9.3590002 0.066 0.28999999
14.971 9.3629999 0.067000002 0.33000001
14.865 9.3620005 0.067000002 0.34
14.763 9.3629999 0.068000004 0.34
14.656 9.3599997 0.068999998 0.33000001
14.582 9.3450003 0.068999998 0.31999999
14.474 9.3400002 0.07 0.33000001
14.377 9.342 0.071000002 0.34
14.271 9.3369999 0.071999997 0.34
14.169 9.3339996 0.071999997 0.31999999
14.09 9.3459997 0.072999999 0.34
13.991 9.3439999 0.072999999 0.34
13.919 9.3280001 0.074000001 0.34999999
13.832 9.3319998 0.074000001 0.34
13.755 9.3430004 0.075000003 0.36000001
13.661 9.342 0.075999998 0.36000001
13.58 9.3500004 0.075999998 0.38
13.496 9.3549995 0.077 0.36000001
13.418 9.3629999 0.077 0.36000001
13.346 9.3439999 0.078000002 0.37
13.257 9.3450003 0.078000002 0.34999999
13.18 9.3529997 0.079000004 0.37
13.097 9.3559999 0.079000004 0.37
13.011 9.3559999 0.079999998 0.38
12.931 9.3610001 0.079999998 0.38
12.851 9.3649998 0.081 0.38
12.791 9.3520002 0.081 0.38
12.709 9.3529997 0.082000002 0.34
12.631 9.3579998 0.082000002 0.38999999
12.557 9.3640003 0.082000002 0.34999999
12.481 9.3690004 0.082999997 0.36000001
12.403 9.3719997 0.082999997 0.38999999
12.339 9.3839998 0.083999999 0.34999999
12.275 9.3660002 0.083999999 0.36000001
12.201 9.3699999 0.085000001 0.40000001
12.121 9.3699999 0.085000001 0.34
12.044 9.3710003 0.086000003 0.36000001
11.973 9.3769999 0.086000003 0.38999999
11.911 9.3879995 0.086000003 0.34
11.825 9.3809996 0.086999997 0.36000001
11.763 9.3620005 0.086999997 0.34999999
11.7 9.3730001 0.088 0.36000001
11.624 9.3719997 0.088 0.38999999
11.615 9.4250002 0.088 0.36000001
11.612 9.4829998 0.088 0.41999999
11.644 9.5699997 0.086999997 0.36000001
11.573 9.573 0.088 0.36000001
11.526 9.5649996 0.088 0.38
11.444 9.5570002 0.088 0.36000001
11.378 9.5640001 0.089000002 0.38
11.316 9.5719995 0.089000002 0.38
11.239 9.5679998 0.090000004 0.38
11.171 9.5710001 0.090000004 0.38
11.106 9.5760002 0.090000004 0.38
11.048 9.5570002 0.090999998 0.37
10.977 9.5559998 0.090999998 0.38
10.923 9.5690002 0.090999998 0.34
10.846 9.5629997 0.092 0.40000001
10.78 9.5649996 0.092 0.38
10.717 9.5690002 0.093000002 0.40000001
10.647 9.5670004 0.093000002 0.38
10.604 9.5579996 0.093000002 0.38999999
10.536 9.5579996 0.093999997 0.34999999
10.462 9.5509996 0.093999997 0.41
10.404 9.5579996 0.094999999 0.34
10.34 9.559 0.094999999 0.41
10.275 9.559 0.094999999 0.36000001
10.229 9.5469999 0.096000001 0.40000001
10.168 9.5500002 0.096000001 0.34999999
10.115 9.5600004 0.096000001 0.37
10.046 9.5550003 0.097000003 0.41
9.9840002 9.5559998 0.097000003 0.34
9.9189997 9.5539999 0.097000003 0.41999999
9.8629999 9.5600004 0.097999997 0.34999999
9.8129997 9.5419998 0.097999997 0.40000001
9.7559996 9.5459995 0.097999997 0.36000001
9.6859999 9.5380001 0.098999999 0.41
9.6359997 9.5489998 0.098999999 0.36000001
9.5740004 9.5459995 0.098999999 0.41
9.5179996 9.5509996 0.1 0.34999999
9.4630003 9.5550003 0.1 0.41999999
9.4099998 9.5319996 0.1 0.36000001
9.3540001 9.5360003 0.101 0.40000001
9.302 9.5419998 0.101 0.34999999
9.243 9.5410004 0.101 0.41
9.1850004 9.5410004 0.102 0.34
9.1269999 9.5410004 0.102 0.41
9.0749998 9.5469999 0.102 0.34
9.0299997 9.5290003 0.102 0.41999999
8.9849997 9.5410004 0.103 0.36000001
8.9200001 9.533 0.103 0.41999999
8.8789997 9.5500002 0.103 0.23
8.8140001 9.5389996 0.104 0.49000001
8.7659998 9.5480003 0.104 0.28999999
8.7110004 9.5469999 0.104 0.51999998
8.6739998 9.5369997 0.104 0.36000001
8.6210003 9.5389996 0.105 0.41999999
8.5640001 9.5369997 0.105 0.41
8.5170002 9.5439997 0.105 0.43000001
8.46 9.5410004 0.105 0.46000001
8.401 9.5349998 0.106 0.38999999
8.3529997 9.54 0.106 0.34
8.3170004 9.5290003 0.106 0.41
8.2620001 9.526 0.107 0.34
8.2119999 9.5299997 0.107 0.41
8.1610003 9.5310001 0.107 0.34
8.1090002 9.5310001 0.107 0.41
8.0550003 9.5270004 0.108 0.40000001
8.0159998 9.5419998 0.108 0.34
7.9590001 9.5349998 0.108 0.40000001
7.928 9.5290003 0.108 0.34999999
7.875 9.526 0.109 0.41
7.8239999 9.5240002 0.109 0.34
7.7810001 9.5340004 0.109 0.41999999
7.7249999 9.5249996 0.109 0.34999999
7.6760001 9.526 0.11 0.41999999
7.6420002 9.5150003 0.11 0.40000001
7.5999999 9.5229998 0.11 0.40000001
7.5450001 9.5159998 0.11 0.40000001
7.5040002 9.5249996 0.11 0.34999999
7.4559999 9.5270004 0.111 0.40000001
7.4039998 9.5220003 0.111 0.40000001
7.3610001 9.5279999 0.111 0.40000001
7.3299999 9.5190001 0.111 0.38999999
7.2820001 9.5179996 0.112 0.38999999
7.237 9.5220003 0.112 0.38
7.1890001 9.5200005 0.112 0.38
7.145 9.5240002 0.112 0.38999999
7.098 9.5240002 0.112 0.38
7.0570002 9.5319996 0.112 0.38999999
7.0240002 9.5190001 0.113 0.38
6.9770002 9.5159998 0.113 0.38999999
6.9330001 9.5190001 0.113 0.38
6.8860002 9.5179996 0.113 0.38
6.8429999 9.5220003 0.114 0.37
6.7979999 9.5220003 0.114 0.37
6.75 9.5170002 0.114 0.38
6.7270002 9.5170002 0.114 0.38
6.677 9.5100002 0.114 0.38
6.6360002 9.5139999 0.115 0.38
6.592 9.5159998 0.115 0.38
6.5510001 9.5200005 0.115 0.37
6.506 9.5190001 0.115 0.38
6.4629998 9.5190001 0.115 0.38
6.434 9.5100002 0.115 0.38
6.3930001 9.5129995 0.116 0.41
6.3499999 9.5129995 0.116 0.34
6.309 9.5170002 0.116 0.36000001
6.2690001 9.5209999 0.116 0.38
6.223 9.5159998 0.116 0.37
6.1799998 9.5150003 0.117 0.36000001
6.158 9.5150003 0.117 0.36000001
6.1110001 9.507 0.117 0.41
6.0009999 9.4020004 0.118 0.34999999
5.915 9.3330002 0.119 0.40000001
5.8740001 9.3330002 0.119 0.38999999
5.8319998 9.3310003 0.119 0.36000001
5.7919998 9.3319998 0.119 0.38
5.7690001 9.3280001 0.12 0.38
5.7280002 9.3269997 0.12 0.38
5.6799998 9.3149996 0.12 0.37
5.6469998 9.3260002 0.12 0.38
5.6030002 9.3190002 0.12 0.38
5.5609999 9.316 0.12 0.36000001
5.52 9.3129997 0.121 0.36000001
5.5 9.3129997 0.121 0.36000001
5.4559999 9.3059998 0.121 0.36000001
5.4190001 9.3100004 0.121 0.38999999
5.375 9.3009996 0.121 0.38
5.3340001 9.2969999 0.121 0.34
5.2979999 9.3030005 0.122 0.36000001
5.2610002 9.3059998 0.122 0.36000001
5.2179999 9.2980003 0.122 0.34
5.1939998 9.2880001 0.122 0.34
5.1560001 9.2889996 0.122 0.34
5.118 9.2889996 0.122 0.36000001
5.0830002 9.2950001 0.122 0.38
5.0419998 9.29 0.123 0.33000001
5.007 9.2950001 0.123 0.34
4.967 9.29 0.123 0.34
4.9439998 9.283 0.123 0.34999999
4.9099998 9.2880001 0.123 0.34999999
4.8709998 9.2860003 0.123 0.34
4.835 9.2889996 0.123 0.34
4.7979999 9.2880001 0.124 0.34
4.7639999 9.2939997 0.124 0.36000001
4.7410002 9.2860003 0.124 0.34
4.7049999 9.2860003 0.124 0.34999999
4.671 9.2919998 0.124 0.37
4.631 9.2849998 0.124 0.33000001
4.5939999 9.2840004 0.124 0.38
4.5650001 9.2980003 0.124 0.36000001
4.5229998 9.2869997 0.125 0.33000001
4.5019999 9.2799997 0.125 0.34
4.4679999 9.2849998 0.125 0.38
4.4330001 9.2860003 0.125 0.33000001
4.3969998 9.2869997 0.125 0.37
4.3660002 9.2959995 0.125 0.36000001
4.3309999 9.2969999 0.125 0.36000001
4.29 9.2849998 0.125 0.34
4.2519999 9.2799997 0.126 0.36000001
4.2360001 9.283 0.126 0.36000001
4.2020001 9.2860003 0.126 0.33000001
4.1669998 9.2880001 0.126 0.36000001
4.1329999 9.29 0.126 0.36000001
4.0939999 9.2790003 0.126 0.34999999
4.0640001 9.29 0.126 0.36000001
4.0279999 9.2880001 0.126 0.34999999
4.007 9.2799997 0.126 0.34
3.971 9.276 0.126 0.33000001
3.938 9.2810001 0.127 0.34999999
3.9089999 9.2930002 0.127 0.36000001
3.8740001 9.2910004 0.127 0.34999999
3.8399999 9.2919998 0.127 0.34999999
3.8050001 9.2889996 0.127 0.34999999
3.793 9.302 0.127 0.34
3.753 9.2880001 0.127 0.34999999
3.7179999 9.2849998 0.127 0.31999999
3.6900001 9.3009996 0.127 0.34
3.654 9.2930002 0.127 0.34
3.6199999 9.2939997 0.127 0.34999999
3.6029999 9.2939997 0.127 0.34999999
3.5639999 9.2790003 0.12800001 0.33000001
3.5339999 9.2860003 0.12800001 0.34
3.5050001 9.2989998 0.12800001 0.33000001
3.4649999 9.2819996 0.12800001 0.31999999
3.4349999 9.2910004 0.12800001 0.31999999
3.405 9.3000002 0.12800001 0.38999999
3.368 9.2880001 0.12800001 0.31
3.345 9.2690001 0.12800001 0.31999999
3.3169999 9.283 0.12800001 0.38
3.2780001 9.2670002 0.12800001 0.31
3.244 9.2620001 0.12899999 0.30000001
3.2190001 9.2860003 0.12899999 0.38999999
3.1760001 9.2539997 0.12899999 0.31
3.1470001 9.2659998 0.12899999 0.37
3.1240001 9.2449999 0.12899999 0.30000001
3.0910001 9.243 0.12899999 0.34
3.0599999 9.2489996 0.12899999 0.37
3.0280001 9.2489996 0.12899999 0.31
2.9909999 9.2340002 0.12899999 0.33000001
2.961 9.2410002 0.12899999 0.36000001
2.931 9.2469997 0.13 0.31
2.9119999 9.2379999 0.13 0.31999999
2.878 9.2320004 0.13 0.38999999
2.8429999 9.2200003 0.13 0.30000001
2.8150001 9.2299995 0.13 0.36000001
2.7809999 9.224 0.13 0.30000001
2.7520001 9.2340002 0.13 0.36000001
2.717 9.2200003 0.13 0.30000001
2.701 9.2209997 0.13 0.37
2.6700001 9.2209997 0.13 0.30000001
2.6389999 9.2220001 0.13 0.31999999
2.609 9.2279997 0.13 0.36000001
2.5769999 9.2250004 0.13 0.31999999
2.546 9.2270002 0.131 0.37
2.5150001 9.2270002 0.131 0.31999999
2.4979999 9.224 0.131 0.37
2.4630001 9.2060003 0.131 0.30000001
2.437 9.2259998 0.131 0.36000001
2.4030001 9.2139997 0.131 0.34
2.3729999 9.217 0.131 0.30000001
2.3429999 9.2229996 0.131 0.36000001
2.3099999 9.2130003 0.131 0.28999999
2.2950001 9.2159996 0.131 0.34999999
2.2609999 9.1999998 0.131 0.28
2.234 9.2150002 0.131 0.36000001
2.1989999 9.2010002 0.131 0.30000001
2.171 9.2110004 0.131 0.34999999
2.142 9.2139997 0.131 0.34
2.112 9.2189999 0.131 0.34
2.092 9.1990004 0.132 0.31999999
2.062 9.1999998 0.132 0.28999999
2.0350001 9.2159996 0.132 0.34999999
2.003 9.2069998 0.132 0.28999999
1.976 9.2209997 0.132 0.34999999
1.9450001 9.217 0.132 0.31999999
1.915 9.2189999 0.132 0.28999999
1.899 9.2159996 0.132 0.36000001
1.868 9.2119999 0.132 0.34
1.836 9.2010002 0.132 0.28
1.8099999 9.224 0.132 0.34999999
1.778 9.2119999 0.132 0.34
1.752 9.2309999 0.132 0.34
1.7180001 9.2130003 0.132 0.34
1.705 9.2220001 0.132 0.33000001
1.675 9.2229996 0.132 0.31999999
1.646 9.2299995 0.132 0.34
1.6160001 9.2259998 0.132 0.34999999
1.586 9.2250004 0.132 0.34
1.556 9.224 0.132 0.31999999
1.527 9.2309999 0.132 0.28999999
1.512 9.2329998 0.132 0.37
1.483 9.2360001 0.132 0.28
1.454 9.2399998 0.132 0.36000001
1.424 9.2390003 0.132 0.33000001
1.3940001 9.2329998 0.132 0.31999999
1.365 9.2419996 0.132 0.34999999
1.3329999 9.2279997 0.132 0.28
1.319 9.2320004 0.132 0.36000001
1.2920001 9.2460003 0.132 0.33000001
1.261 9.2360001 0.132 0.31999999
1.232 9.2399998 0.132 0.33000001
1.2029999 9.25 0.132 0.31
1.1720001 9.2360001 0.133 0.31999999
1.1440001 9.2469997 0.133 0.34
1.128 9.2390003 0.133 0.33000001
1.1 9.2469997 0.133 0.31999999
1.069 9.2399998 0.133 0.31999999
1.041 9.2460003 0.133 0.33000001
1.0089999 9.2270002 0.133 0.30000001
0.98299998 9.2519999 0.133 0.34999999
0.95200002 9.243 0.133 0.30000001
0.93599999 9.2250004 0.133 0.28
0.90700001 9.2360001 0.133 0.34999999
0.87800002 9.2360001 0.133 0.31
0.84899998 9.2329998 0.133 0.31999999
0.82099998 9.2460003 0.133 0.34
0.79100001 9.2399998 0.133 0.33000001
0.76200002 9.243 0.133 0.34
0.74599999 9.2340002 0.133 0.31999999
0.71700001 9.2320004 0.133 0.33000001
0.68900001 9.2419996 0.133 0.31999999
0.65899998 9.2399998 0.133 0.34
0.63 9.2410002 0.133 0.34
0.60100001 9.2379999 0.133 0.31999999
0.57200003 9.2419996 0.133 0.31999999
0.54299998 9.25 0.133 0.36000001
0.52700001 9.217 0.133 0.28999999
0.49900001 9.2329998 0.133 0.34
0.47 9.2360001 0.133 0.33000001
0.44 9.2270002 0.133 0.31999999
0.41100001 9.2370005 0.133 0.34
0.382 9.2340002 0.133 0.31
0.368 9.2349997 0.133 0.31
0.33899999 9.2379999 0.133 0.31999999
0.30899999 9.2229996 0.133 0.31999999
0.28 9.2220001 0.133 0.31
0.25099999 9.2189999 0.133 0.31
0.223 9.2370005 0.133 0.33000001
0.193 9.224 0.133 0.31
0.164 9.2209997 0.133 0.31999999
0.15000001 9.2290001 0.133 0.34
0.121 9.2229996 0.133 0.31999999
0.092 9.224 0.133 0.31999999
0.063000001 9.2259998 0.133 0.33000001
0.034000002 9.2279997 0.133 0.33000001
0.0049999999 9.2180004 0.133 0.30000001
-0.024 9.224 0.133 0.33000001
-0.039000001 9.2200003 0.133 0.31999999
-0.068000004 9.2440004 0.133 0.34
-0.097000003 9.2290001 0.133 0.31999999
-0.126 9.2250004 0.133 0.37
-0.154 9.217 0.133 0.30000001
-0.184 9.2299995 0.133 0.30000001
-0.213 9.2320004 0.133 0.31999999
-0.227 9.2229996 0.133 0.31999999
-0.25600001 9.2299995 0.133 0.31999999
-0.285 9.2220001 0.133 0.31999999
-0.31400001 9.2250004 0.133 0.31
-0.34299999 9.2259998 0.133 0.31999999
-0.37200001 9.2159996 0.133 0.31999999
-0.40099999 9.2270002 0.133 0.34
-0.41499999 9.2049999 0.133 0.30000001
-0.44400001 9.2189999 0.133 0.31
-0.47299999 9.2139997 0.133 0.31
-0.50099999 9.198 0.133 0.31999999
-0.53200001 9.2209997 0.133 0.33000001
-0.56 9.217 0.133 0.37
-0.58899999 9.2110004 0.133 0.28999999
-0.60399997 9.2119999 0.133 0.33000001
-0.63300002 9.21 0.133 0.31999999
-0.66100001 9.2060003 0.133 0.31999999
-0.69099998 9.21 0.133 0.31
-0.72000003 9.2180004 0.133 0.33000001
-0.74900001 9.2159996 0.133 0.30000001
-0.77899998 9.2150002 0.133 0.31999999
-0.79299998 9.2159996 0.133 0.31999999
-0.82099998 9.2049999 0.133 0.30000001
-0.852 9.2250004 0.133 0.31999999
-0.88099998 9.2159996 0.133 0.31
-0.91100001 9.2229996 0.133 0.34
-0.93900001 9.21 0.133 0.28999999
-0.96799999 9.2089996 0.133 0.30000001
-0.98299998 9.2200003 0.133 0.31999999
-1.013 9.2229996 0.133 0.34999999
-1.0420001 9.2189999 0.133 0.30000001
-1.072 9.2220001 0.133 0.30000001
-1.101 9.224 0.133 0.34999999
-1.13 9.2189999 0.133 0.28999999
-1.159 9.2130003 0.133 0.31
-1.175 9.2270002 0.133 0.36000001
-1.204 9.224 0.133 0.28999999
-1.234 9.2299995 0.133 0.31
-1.2640001 9.2299995 0.133 0.31999999
-1.293 9.2259998 0.133 0.31
-1.324 9.2379999 0.132 0.34999999
-1.351 9.2180004 0.133 0.30000001
-1.367 9.2290001 0.132 0.34
-1.396 9.2229996 0.132 0.31999999
-1.425 9.2159996 0.132 0.31999999
-1.456 9.2279997 0.132 0.33000001
-1.483 9.2069998 0.132 0.30000001
-1.513 9.2089996 0.132 0.31
-1.543 9.2159996 0.132 0.30000001
-1.559 9.217 0.132 0.31999999
-1.587 9.2080002 0.132 0.30000001
-1.618 9.2150002 0.132 0.30000001
-1.646 9.2040005 0.132 0.30000001
-1.678 9.217 0.132 0.36000001
-1.706 9.2069998 0.132 0.30000001
-1.737 9.2119999 0.132 0.34
-1.75 9.2010002 0.132 0.30000001
-1.781 9.2069998 0.132 0.31999999
-1.809 9.1960001 0.132 0.30000001
-1.8380001 9.1940002 0.132 0.31999999
-1.869 9.1960001 0.132 0.34
-1.897 9.1879997 0.132 0.30000001
-1.927 9.1879997 0.132 0.31
-1.944 9.1969995 0.132 0.31999999
-1.975 9.198 0.132 0.34999999
-2.003 9.1879997 0.132 0.28999999
-2.0339999 9.1940002 0.132 0.31999999
-2.063 9.1870003 0.132 0.31
-2.0910001 9.1750002 0.132 0.31999999
-2.125 9.1940002 0.132 0.31999999
-2.1400001 9.1899996 0.132 0.31999999
-2.171 9.1949997 0.132 0.31
-2.2019999 9.198 0.131 0.31999999
-2.2279999 9.177 0.132 0.31999999
-2.2579999 9.1759996 0.131 0.30000001
-2.2909999 9.1870003 0.131 0.31
-2.3199999 9.1789999 0.131 0.31
-2.3499999 9.1759996 0.131 0.31
-2.3710001 9.1969995 0.131 0.37
-2.395 9.1719999 0.131 0.30000001
-2.4300001 9.1879997 0.131 0.34
-2.4630001 9.1960001 0.131 0.34
-2.4890001 9.1759996 0.131 0.31999999
-2.52 9.1780005 0.131 0.31999999
-2.5409999 9.1969995 0.131 0.34
-2.5680001 9.1820002 0.131 0.25
-2.572 9.0869999 0.132 0.18000001
-2.645 9.2349997 0.13 0.13
-1.872 6.4289999 0.153 0.1
-1.881 6.3850002 0.154 0
-1.8609999 6.2449999 0.155 0.11
-1.86 6.2049999 0.155 0.20999999
-1.865 6.1500001 0.155 0
-1.878 6.1230001 0.156 0
-1.9 6.1259999 0.155 0
-1.911 6.0929999 0.156 0
-1.936 6.1069999 0.155 0
-1.948 6.0780001 0.156 0.13
